# .PCD v0.7 - Point Cloud Data file format
VERSION 0.7
FIELDS x y z
SIZE 4 4 4
TYPE F F F
COUNT 1 1 1
WIDTH 135
HEIGHT 1
VIEWPOINT 0 0 0 1 0 0 0
POINTS 135
DATA ascii
-0.015606371 0.14488281 0.52373695
-0.021385312 0.15587227 0.52400011
-0.016668836 0.15376738 0.52319723
-0.023079598 0.1636548 0.52298689
-0.016644834 0.16273536 0.52249986
-0.030837819 0.1771117 0.52380008
-0.024494076 0.1737494 0.52219611
-0.015445289 0.17366184 0.52058995
-0.0095551405 0.17608757 0.52400005
-0.032667302 0.18360183 0.52300012
-0.025508309 0.18170677 0.52090001
-0.014803211 0.18115045 0.51956362
-0.0077389725 0.18471314 0.52066672
-0.0077351131 0.18882777 0.52400005
-0.018547602 0.098765969 0.53400004
-0.02023224 0.10571504 0.53358334
-0.016723895 0.10531239 0.53330243
-0.022701882 0.11450768 0.53293455
-0.016438952 0.11387089 0.53095716
-0.023972878 0.12370719 0.53203189
-0.016385114 0.12394718 0.52997553
-0.031742215 0.13478719 0.53300017
-0.02488354 0.13352808 0.53011286
-0.015990902 0.1340638 0.52760965
-0.033439405 0.14415893 0.53240454
-0.024709333 0.14350869 0.52800006
-0.01575614 0.1423272 0.52614713
-0.0097101377 0.14149101 0.53250003
-0.041566189 0.15471189 0.53369242
-0.034469396 0.15331703 0.53075612
-0.025180642 0.15311216 0.52624559
-0.012579655 0.1529627 0.52752733
-0.009579815 0.15411709 0.52958339
-0.041640274 0.16351894 0.53280008
-0.034848671 0.16312099 0.52872968
-0.027929522 0.16305915 0.52544671
-0.01208652 0.16448413 0.52613509
-0.0092508513 0.16399729 0.52900004
-0.042836335 0.17376365 0.53149992
-0.034955278 0.17319678 0.52722961
-0.029000666 0.17095312 0.52500004
-0.011523983 0.17074311 0.52690476
-0.0079443101 0.17301147 0.53202063
-0.036029909 0.18113607 0.52621162
-0.0076008779 0.18154351 0.52949989
-0.031069981 0.086915106 0.54350013
-0.040151734 0.095891789 0.54400003
-0.034002598 0.094683394 0.54236901
-0.024792884 0.094087593 0.5376637
-0.015823217 0.094590679 0.53608721
-0.040522028 0.10636274 0.54333335
-0.034646038 0.10402884 0.54045856
-0.025202898 0.10371801 0.53630513
-0.013507756 0.10314924 0.5378986
-0.008373891 0.10353566 0.54400009
-0.042521685 0.11499933 0.5426544
-0.034654543 0.11392087 0.53945285
-0.027307704 0.11284183 0.53559172
-0.012120727 0.11400024 0.53851229
-0.0088831671 0.11655547 0.54226661
-0.043812238 0.12386872 0.54156858
-0.034554988 0.12362605 0.53708822
-0.028729266 0.12359694 0.53499997
-0.011711634 0.1234355 0.53693938
-0.0087580336 0.12311223 0.54047233
-0.04354449 0.13374972 0.53927374
-0.03612547 0.13304573 0.53620803
-0.011770536 0.13266364 0.5376786
-0.0081950268 0.13341016 0.54147828
-0.043422654 0.14375693 0.53750634
-0.03799887 0.14217614 0.53547215
-0.011171046 0.14529194 0.53607148
-0.0086256219 0.1440855 0.53892308
-0.044544138 0.15263684 0.53587919
-0.011149401 0.14912324 0.53500003
-0.0066069826 0.15387695 0.54129297
-0.045077607 0.1621874 0.53518176
-0.0059745023 0.16307598 0.54039741
-0.0045501427 0.17209944 0.53873903
-0.003540914 0.18192598 0.54079306
-0.037599992 0.091848761 0.54555541
-0.043492869 0.10333073 0.54603034
-0.03880582 0.10032724 0.54500002
-0.010297566 0.10534533 0.54525
-0.0079268906 0.10673281 0.54628575
-0.050098199 0.11742067 0.546
-0.045656227 0.11328467 0.5454545
-0.0099836625 0.11076851 0.54750007
-0.0068761571 0.11365702 0.54835016
-0.048518453 0.12094049 0.54512507
-0.0049885134 0.124722 0.5514524
-0.003808981 0.13406859 0.55027127
0.00048062252 0.13649593 0.55350006
-0.0038538168 0.14365602 0.55005068
0.00048018835 0.13925463 0.55300003
-0.0023968176 0.15265422 0.54905778
0.00084103504 0.15324265 0.55343753
-0.0013653357 0.1631089 0.54727268
0.00090596109 0.16473015 0.55166668
-0.0013128198 0.17354862 0.54642302
0.0017227966 0.17366457 0.55089188
-0.0012257972 0.18225883 0.54683334
0.0015910669 0.18292256 0.5503872
-0.0038484535 0.19049844 0.55400002
0.0020190489 0.18988089 0.55360001
-0.001445775 0.11807163 0.55500001
-0.0021872206 0.12282223 0.55502576
0.0027724025 0.12626655 0.55835712
-0.0012657588 0.13157806 0.5555625
0.0015654602 0.13163668 0.55916673
-0.000481925 0.14554136 0.55500001
0.0022399363 0.14535543 0.55719358
0.0039339252 0.15330955 0.56121564
0.0037005993 0.16326706 0.56054896
0.0053122598 0.17345074 0.55968618
0.0056459033 0.18354273 0.5575
0.0041220202 0.1900894 0.55609524
0.0032892898 0.13608038 0.56534994
0.0049302732 0.14356923 0.56753582
0.0078729475 0.1545168 0.56866658
0.010936224 0.15592849 0.57249999
0.0079510156 0.16310517 0.56797218
0.011633018 0.16177906 0.57255012
0.008317803 0.17238396 0.56870824
0.01046689 0.17594346 0.574
0.0089600831 0.18291862 0.56871426
0.011364982 0.18403053 0.57280773
0.0091491947 0.19038859 0.56950003
0.011144348 0.19040829 0.57145458
0.0089872498 0.15228397 0.57500005
0.011952554 0.15532342 0.57656252
0.014163964 0.16529989 0.58021206
0.0094865421 0.17125706 0.57500005
0.013473601 0.1728785 0.57793444
0.015034688 0.18285461 0.57733333
