# .PCD v0.7 - Point Cloud Data file format
VERSION 0.7
FIELDS x y z
SIZE 4 4 4
TYPE F F F
COUNT 1 1 1
WIDTH 345
HEIGHT 1
VIEWPOINT 0 0 0 1 0 0 0
POINTS 345
DATA ascii
0.063903421 0.17236574 0.54326922
0.072314873 0.17205252 0.54376924
0.074243084 0.12427298 0.55400002
0.067828991 0.13806327 0.55400002
0.073087297 0.13541572 0.55374998
0.054989014 0.14667235 0.55342859
0.065201379 0.14402862 0.55276501
0.072200485 0.14452042 0.55306584
0.032622851 0.15783912 0.55250001
0.047520053 0.15479755 0.55336857
0.054395061 0.15351672 0.55209094
0.063826129 0.15018001 0.55094588
0.073770128 0.15036774 0.55155569
0.028836915 0.1649131 0.5535
0.033832096 0.16395178 0.55245578
0.043913968 0.16400096 0.55078834
0.054633602 0.16295242 0.54931825
0.066984974 0.16580677 0.54714286
0.071553819 0.16689822 0.54662502
0.0019242268 0.17558569 0.55400002
0.017421506 0.17577164 0.55376923
0.026385067 0.17342883 0.55292743
0.034433253 0.17321441 0.55077577
0.044156007 0.17304662 0.54985702
0.054396622 0.17369018 0.54809183
0.065929078 0.17326744 0.54575002
0.070675768 0.17159413 0.54530436
-0.0058610765 0.18058571 0.55340004
0.007982241 0.18244673 0.55379999
0.015105717 0.17978084 0.55352175
0.026093418 0.17916133 0.55181825
0.033524215 0.17958818 0.54915375
0.049012206 0.17844251 0.54800004
0.054025359 0.17891534 0.54770005
0.060322251 0.17906684 0.54700005
0.066120677 0.095915414 0.56369543
0.071411297 0.095049612 0.56281257
0.057212703 0.1043587 0.5638535
0.06473159 0.10441663 0.56298029
0.072155319 0.10387652 0.56083107
0.037002157 0.11653447 0.56365001
0.044962261 0.11565841 0.56332856
0.055006325 0.11445517 0.56160015
0.064452387 0.11400795 0.56020993
0.071835347 0.11401088 0.55809993
0.027388785 0.12715361 0.56321436
0.035322908 0.12447896 0.56344968
0.044794038 0.12338378 0.56170702
0.05448563 0.12393872 0.55995405
0.064312637 0.12364582 0.55790627
0.072344482 0.12389329 0.55607927
0.018088251 0.13786094 0.56299996
0.025098355 0.13442367 0.56141537
0.034806397 0.1336683 0.56097466
0.044537965 0.13361655 0.55979502
0.054477174 0.13397001 0.55679798
0.064513288 0.13357158 0.55595535
0.072733901 0.13264582 0.55526429
0.0085688215 0.14737885 0.56387508
0.015249068 0.14425878 0.56178409
0.024798822 0.14372352 0.55900002
0.034888253 0.14391328 0.55822015
0.044443399 0.14372343 0.55677539
0.054398283 0.14307383 0.55527788
0.062346816 0.14295323 0.55500007
0.0713249 0.13927633 0.55500001
-0.0018355898 0.15710841 0.56069231
0.0055986247 0.15434417 0.56139117
0.014384916 0.15367392 0.56042749
0.024395367 0.15339735 0.55825263
0.033521574 0.15302797 0.55569863
0.045803834 0.15007876 0.55526668
0.050602123 0.14939675 0.55500001
-0.011222218 0.16720268 0.56185716
-0.0043620826 0.16376381 0.56051117
0.0048489575 0.16336912 0.55860162
0.015243953 0.16241507 0.55684584
0.024253802 0.16310216 0.55594039
0.03180705 0.16395089 0.55499995
-0.021113962 0.17708878 0.55900007
-0.01364785 0.17407306 0.55939263
-0.0048148339 0.17321931 0.55739313
0.0048381304 0.17313333 0.5557431
0.014005784 0.1748569 0.55516678
0.023519065 0.17328936 0.5551703
-0.021425935 0.18147622 0.55913049
-0.016417291 0.17997612 0.55838096
-0.0033738164 0.18018261 0.55503583
0.0043831766 0.18077999 0.55550003
0.011264996 0.1809026 0.55499995
0.022971759 0.17911547 0.55500001
0.068613343 0.087434098 0.56614292
0.070294447 0.086538538 0.56689996
0.058165912 0.097626455 0.5658462
0.064076975 0.093286119 0.56551296
0.070699878 0.090758383 0.56620002
0.046856314 0.10655177 0.56504154
0.053180117 0.10490634 0.56510419
0.061746564 0.1001542 0.565
0.038103912 0.1136576 0.565
0.044514522 0.11117185 0.56499982
0.05270841 0.11051486 0.56499988
0.027964676 0.12608634 0.565
0.032191455 0.12336914 0.565
0.042122226 0.12594618 0.565
0.042682927 0.12902999 0.565
0.008340342 0.14669189 0.565
0.26656964 0.16950735 0.81000006
0.24737687 0.11287609 0.82100004
0.24880269 0.11513362 0.82100004
0.24737689 0.11905458 0.82100004
0.25022849 0.12333199 0.82100004
0.25292248 0.13443045 0.8175
0.25404367 0.14304084 0.81833333
0.25628814 0.15095693 0.82100004
0.25993603 0.1537278 0.82088894
0.26289403 0.16315584 0.81644875
0.26418185 0.1728965 0.81792682
0.26969019 0.17551623 0.8145715
0.26510471 0.18234847 0.81784624
0.27106211 0.18330526 0.8150515
0.2661705 0.18924081 0.82033342
0.2716454 0.1934236 0.81659985
0.27789533 0.19587024 0.81433338
0.27228677 0.19895619 0.81733346
0.2784884 0.19861737 0.81400001
0.22182877 0.047826353 0.83033341
0.22276928 0.054422654 0.82910812
0.22463609 0.063520931 0.82950014
0.22932817 0.066465475 0.82790923
0.22639647 0.071412854 0.83071429
0.23156536 0.074524023 0.82942122
0.23290659 0.084396616 0.83004773
0.23855722 0.08792831 0.83000004
0.23448429 0.094086513 0.82958078
0.23954268 0.094873294 0.82691294
0.2354131 0.10350785 0.83010018
0.2414555 0.10432932 0.82633346
0.24774854 0.1048443 0.82700002
0.2368242 0.11011388 0.83100003
0.24265894 0.11404055 0.82658511
0.25002131 0.11505677 0.82300001
0.24377777 0.12357133 0.826814
0.24916308 0.12422487 0.82313335
0.2449092 0.13274802 0.82913804
0.24931192 0.13417691 0.82419997
0.24648423 0.14053975 0.83000004
0.24974945 0.1438107 0.82631427
0.25335136 0.15370229 0.82715005
0.25905642 0.15436187 0.82300001
0.25486928 0.16304868 0.82847065
0.25856477 0.16419604 0.82333332
0.25611636 0.17103881 0.83033335
0.25942907 0.17399609 0.82570976
0.26095039 0.18311286 0.82716221
0.2636537 0.19292569 0.82689744
0.2679894 0.19795482 0.82300001
0.26547667 0.19933526 0.82800001
0.2679894 0.19938411 0.82300001
0.21571673 0.044662654 0.83858323
0.21936236 0.0458382 0.83414298
0.21659119 0.051902115 0.83922225
0.21862619 0.054903176 0.83555561
0.22060536 0.065402068 0.83615392
0.22263132 0.074340902 0.83700001
0.22784632 0.077395424 0.833
0.22513384 0.083746903 0.83692002
0.22855006 0.084651992 0.83322233
0.22657205 0.091067769 0.83900005
0.2300119 0.094436958 0.83657157
0.23136744 0.10382789 0.83687878
0.23429394 0.11315437 0.8368572
0.23796445 0.11644842 0.83466673
0.2365272 0.12286048 0.84020007
0.23923138 0.12430355 0.83586949
0.23733722 0.12998778 0.84100002
0.2408884 0.13375166 0.83662957
0.24402797 0.14357083 0.83776921
0.24809934 0.14828095 0.83300006
0.24551079 0.15236144 0.83813035
0.24918915 0.15465422 0.83523536
0.25014043 0.16358298 0.83706069
0.25299481 0.17293 0.83645457
0.25652173 0.18218124 0.83837497
0.25855905 0.18566987 0.83525002
0.25717169 0.18868971 0.83900005
0.25936514 0.19314432 0.83669227
0.261641 0.1991401 0.83700001
0.21259022 0.046743412 0.84606254
0.2148068 0.054664921 0.84600013
0.21564068 0.063840747 0.84785718
0.21856065 0.064139441 0.84416676
0.21667948 0.072722442 0.84745467
0.2187829 0.075914487 0.84549999
0.22241186 0.084217288 0.84656525
0.22534084 0.094658941 0.84670836
0.22664611 0.10176434 0.84800005
0.22876401 0.10500693 0.84563643
0.23162147 0.11397222 0.84622234
0.23397477 0.12394052 0.84564286
0.23574978 0.13263822 0.84755576
0.23866405 0.1359975 0.84455556
0.24000169 0.14337482 0.8471365
0.24223383 0.15419506 0.84608001
0.24552687 0.16202071 0.84735024
0.24814954 0.16577664 0.84400004
0.24968211 0.17393732 0.84600013
0.25336212 0.18285295 0.8470667
0.25534531 0.19212343 0.84746158
0.25782815 0.19575332 0.84433335
0.25911009 0.19843155 0.8453334
0.20719792 0.046955705 0.85833341
0.20985824 0.046718072 0.85400009
0.20735887 0.04997519 0.85900003
0.21099563 0.054461684 0.85593116
0.21273251 0.06467212 0.85607421
0.21489815 0.074360915 0.85636365
0.21824691 0.079160742 0.85200006
0.21659784 0.083859213 0.85690004
0.21994051 0.085142531 0.85360008
0.21705642 0.091000468 0.85900003
0.22107586 0.094006039 0.85581267
0.22381788 0.10382123 0.85580653
0.22860439 0.10875354 0.85200006
0.22666165 0.11227016 0.85785711
0.2295408 0.1153409 0.8546316
0.22691287 0.12053972 0.85866672
0.22988537 0.12385657 0.85513347
0.23290552 0.1335897 0.85653853
0.23560162 0.14314018 0.85674095
0.23850077 0.14591561 0.8530001
0.23625119 0.1504395 0.85828578
0.23937191 0.15351489 0.85523814
0.2422774 0.16392158 0.85569233
0.24469128 0.17245086 0.85718763
0.24798428 0.17414641 0.85250014
0.24636275 0.18164414 0.85763639
0.24915121 0.18413429 0.85333341
0.25079802 0.19312297 0.85445166
0.25337324 0.19912025 0.85428578
0.25819719 0.19901158 0.85200006
0.20500325 0.046965983 0.86533338
0.20533179 0.054378424 0.86686206
0.20882477 0.057692815 0.86285722
0.20565575 0.064004302 0.86900008
0.20936914 0.064539656 0.86422223
0.20647492 0.070337608 0.87100005
0.21111095 0.074014381 0.86722583
0.21324253 0.083840132 0.86610341
0.21541785 0.09368521 0.86755997
0.21841709 0.096392997 0.86320007
0.21635862 0.1011492 0.87060004
0.21992673 0.10416795 0.86616665
0.22314 0.11389878 0.86581248
0.22549514 0.12315503 0.86612505
0.22829352 0.12799408 0.86200005
0.22714144 0.13376705 0.87033337
0.22976521 0.13482702 0.86514282
0.22765182 0.14067522 0.87100005
0.23127776 0.14351092 0.86624128
0.23430057 0.15372875 0.86726665
0.23877257 0.1579342 0.86200005
0.2360615 0.16072266 0.87014294
0.23906183 0.16384606 0.86627275
0.24058317 0.17367561 0.86730766
0.24321319 0.18292652 0.86734295
0.24640854 0.19134855 0.87100011
0.24853806 0.19346315 0.86691672
0.25009277 0.19917309 0.86666662
0.20164263 0.049273577 0.87300003
0.20093463 0.054469444 0.87563634
0.20245799 0.064345926 0.87490004
0.20543878 0.07393299 0.87595004
0.20884416 0.076942593 0.87300003
0.20708014 0.080998138 0.88000005
0.20975156 0.084426098 0.87591302
0.21217406 0.094171435 0.87647378
0.21505196 0.10364523 0.87700015
0.21856906 0.10776625 0.87400007
0.2174408 0.11177679 0.87966663
0.2197836 0.11408082 0.87650007
0.22225189 0.12352819 0.87695652
0.22527812 0.13326551 0.87779999
0.22629957 0.14172426 0.87750006
0.22888102 0.146108 0.8757143
0.23032622 0.15317166 0.87630004
0.23322505 0.16348387 0.87490314
0.23567182 0.17289349 0.87596142
0.23878734 0.1751107 0.87300003
0.23666264 0.18040259 0.87557143
0.23909241 0.18469119 0.87584621
0.24376515 0.19326356 0.87712491
0.24788399 0.19482012 0.87299997
0.24506712 0.19940451 0.87650001
0.24788399 0.19936848 0.87300003
0.19600517 0.054396134 0.88730001
0.19914064 0.056844685 0.88462508
0.20034464 0.06447313 0.88627779
0.20290832 0.074682236 0.8866818
0.20519648 0.083910942 0.88655555
0.20802142 0.088274769 0.88400006
0.20714626 0.092715062 0.88871431
0.20966554 0.09428823 0.88447058
0.21176833 0.10368212 0.88568187
0.21491282 0.11373705 0.88499993
0.21827295 0.11794399 0.88200003
0.21631692 0.12127111 0.88812506
0.2190939 0.12488218 0.88423532
0.22084008 0.13351133 0.88523072
0.22414292 0.14369705 0.88496149
0.22535174 0.15269497 0.88661909
0.22848716 0.1541144 0.88300002
0.22721244 0.15943383 0.88700002
0.22959737 0.16352646 0.88589478
0.2317546 0.17301731 0.88524991
0.2347973 0.18269342 0.88604546
0.23809049 0.18663393 0.88450003
0.23645881 0.19129679 0.88760006
0.23967279 0.19460583 0.88417649
0.24067982 0.1991618 0.88557148
0.19416264 0.056915604 0.89300001
0.19629234 0.063964024 0.89558333
0.19883706 0.065763228 0.89099997
0.19731362 0.074232578 0.89714295
0.1993504 0.074952744 0.89331245
0.19728012 0.080315627 0.89800006
0.20116962 0.084082 0.89385712
0.20468421 0.094390549 0.89452171
0.20812127 0.098257996 0.89100003
0.20625712 0.10341012 0.89635718
0.20933403 0.10528202 0.8933571
0.211023 0.11400101 0.89500004
0.21346845 0.12399022 0.89506686
0.21605781 0.13305937 0.89505005
0.21903379 0.13687763 0.89260006
0.21755397 0.14113717 0.89800006
0.22027411 0.14365953 0.89428574
0.22170791 0.15338592 0.89566684
0.22574449 0.16314998 0.89554995
0.22823708 0.16634227 0.89100003
0.22649816 0.1710047 0.89760005
0.22900176 0.17396146 0.89437497
0.23129515 0.18328932 0.894261
0.23426755 0.19360957 0.89452177
0.23572429 0.19889435 0.89300007
