# .PCD v0.7 - Point Cloud Data file format
VERSION 0.7
FIELDS x y z
SIZE 4 4 4
TYPE F F F
COUNT 1 1 1
WIDTH 184
HEIGHT 1
VIEWPOINT 0 0 0 1 0 0 0
POINTS 184
DATA ascii
-0.034816694 0.19042204 0.67200011
0.058935523 0.19781329 0.67200005
-0.0408464 0.19898033 0.67200005
-0.02217376 0.19898033 0.67200005
-0.017505601 0.19898033 0.67200005
-0.00058352004 0.19898033 0.67200005
0.0041515017 0.15775706 0.68300003
0.025538905 0.15641826 0.68281478
0.031263355 0.15614732 0.68300003
0.053376455 0.15775707 0.68300003
-0.0035597438 0.16534197 0.68074363
0.0044033849 0.16438609 0.68160927
0.014842389 0.16543512 0.68172717
0.025168646 0.16427042 0.68136036
0.034525529 0.16414908 0.68108451
0.044497516 0.16423036 0.68226773
0.05323581 0.1649628 0.68223327
-0.020635942 0.1774691 0.67900002
-0.013293495 0.17441766 0.67897779
-0.0047215628 0.17333071 0.67959124
0.0047133542 0.17322417 0.67854714
0.014825494 0.17348151 0.67983586
0.024738871 0.173539 0.68009245
0.034528341 0.17357668 0.67972088
0.044607494 0.1730862 0.68193018
0.053925537 0.17326538 0.68027431
0.060050461 0.17014298 0.67800003
-0.02993666 0.18725088 0.67600006
-0.023223823 0.18456224 0.67774379
-0.01470066 0.18284877 0.67709857
-0.0047011347 0.18288846 0.67725015
0.0047112787 0.18314961 0.67820865
0.014715456 0.18307367 0.67793834
0.024753811 0.18327488 0.6786809
0.034743808 0.18314931 0.67821044
0.044788867 0.18305056 0.67927301
0.053348657 0.18305898 0.6771664
-0.032993574 0.19386636 0.67434669
-0.024602063 0.19271758 0.67459691
-0.014655496 0.19288634 0.67518467
-0.0046901335 0.19280903 0.67491633
0.004698588 0.19306666 0.67581922
0.01468142 0.19321875 0.67634541
0.024796085 0.19330752 0.67712861
0.034614433 0.19321337 0.6765371
0.044622261 0.19316597 0.67616665
0.05305469 0.19310188 0.67501694
-0.040382709 0.19840202 0.67400002
-0.034568444 0.19921671 0.67477781
-0.024927123 0.19898804 0.67428571
-0.01380253 0.19894645 0.67442852
-0.0049596885 0.19906637 0.67440003
0.0041864836 0.19907199 0.67457139
0.014931504 0.19928268 0.67511779
0.024640914 0.19920947 0.67575008
0.034325879 0.19921362 0.67535293
0.044946384 0.1991362 0.67516679
0.053912979 0.1992456 0.67487508
0.053401634 0.1176036 0.69100004
0.036310133 0.12545937 0.69017267
0.044289332 0.12380734 0.69080049
0.053561073 0.12400063 0.69044679
0.027119307 0.13563579 0.68979335
0.034814745 0.13359807 0.68924266
0.044320595 0.13355337 0.68972218
0.054135069 0.13364424 0.68915272
0.059987944 0.1336365 0.68400002
0.017064748 0.14550191 0.68769717
0.025112126 0.14382495 0.68698591
0.034588829 0.14372143 0.68679208
0.044659331 0.14376202 0.6867004
0.053227674 0.14314665 0.68679148
0.0072543146 0.15424946 0.68548155
0.014824503 0.15312354 0.68506491
0.024570012 0.15216318 0.68422228
0.03483424 0.1531955 0.6851036
0.04464443 0.15357684 0.68552804
0.053464152 0.15338245 0.68531138
0.0075052422 0.16030979 0.68400002
0.014638875 0.16043368 0.68400002
0.023401236 0.16167048 0.68400002
0.035257809 0.15925322 0.68433332
0.045507122 0.1595436 0.68400002
0.054663375 0.16300662 0.68632269
0.059401821 0.16540505 0.69100004
0.057579473 0.16874988 0.68833333
0.053044129 0.10789699 0.6952858
0.046526629 0.11425896 0.69414312
0.05415934 0.11370472 0.69436777
0.059674039 0.11331967 0.69416672
0.046034258 0.120351 0.69300002
0.052620135 0.12188881 0.69299996
0.049945667 0.1311826 0.69300002
0.40738696 -0.12612183 0.84500003
0.30517447 0.17385869 0.87100023
0.30782157 0.1769785 0.87100005
0.3055526 0.18151642 0.87100017
0.30955803 0.18370044 0.86984223
0.31162018 0.19280756 0.87005281
0.31160316 0.19891173 0.87100005
0.27508801 0.065715469 0.88000005
0.27788982 0.067498453 0.88000005
0.27615145 0.069992878 0.87933344
0.27872708 0.071455404 0.87942868
0.28502175 0.097481586 0.88000005
0.28443056 0.10375716 0.87952375
0.28758723 0.10527196 0.87850004
0.28655002 0.10927107 0.88000005
0.28884241 0.10927107 0.88000005
0.29069698 0.12451981 0.8797648
0.29294196 0.13344829 0.87795091
0.29786411 0.13564755 0.87433338
0.29398802 0.14305441 0.87855554
0.2997874 0.14441966 0.87642318
0.29537117 0.15250692 0.87925011
0.30006903 0.15384093 0.87552923
0.29571962 0.15970387 0.88000005
0.30180523 0.16326876 0.87748927
0.30791137 0.16381596 0.87340009
0.3011367 0.17318141 0.87668175
0.30204096 0.18312939 0.8764686
0.30751765 0.18673421 0.87299997
0.30464834 0.1924967 0.87766671
0.30888569 0.19356064 0.87378955
0.30583426 0.19956762 0.87833339
0.30853203 0.19910263 0.87516671
0.27249777 0.057896126 0.88900012
0.27240655 0.063995741 0.88661283
0.27449077 0.074241765 0.8858276
0.27959511 0.076601908 0.88216668
0.27556694 0.083888158 0.88795006
0.27889627 0.084260456 0.88452941
0.2763992 0.093930513 0.88666666
0.28089401 0.094091214 0.8824001
0.28720126 0.095733754 0.88200003
0.2765505 0.10209017 0.889
0.28005493 0.1042379 0.88513792
0.28305039 0.11357112 0.88491428
0.28992438 0.1149656 0.88200003
0.28393975 0.12372332 0.88603115
0.28910872 0.12277725 0.8821429
0.28553745 0.1330927 0.88725001
0.28823572 0.13436846 0.88350004
0.28569108 0.14393328 0.889
0.28941941 0.14376971 0.88475865
0.28639284 0.15052994 0.88900012
0.29041964 0.15333872 0.88457912
0.29342419 0.16331008 0.88436109
0.29792345 0.16772553 0.88200003
0.29487145 0.17275977 0.88576931
0.29792345 0.17232075 0.88200009
0.2962814 0.18155499 0.88757145
0.29818222 0.18414865 0.88362497
0.30023801 0.19314881 0.8857941
0.30200249 0.19903328 0.88500005
0.26461455 0.046794482 0.89552939
0.26803628 0.047298986 0.89300007
0.26522607 0.05423056 0.89523816
0.26994535 0.054840334 0.89205009
0.2656596 0.063506268 0.89481825
0.26915833 0.065550022 0.89226657
0.26537946 0.069918782 0.89800006
0.26966816 0.074607201 0.89500016
0.27060407 0.084245034 0.89428222
0.27242941 0.093933232 0.89491194
0.27322719 0.10385909 0.89393359
0.27775294 0.10754222 0.89100003
0.27566919 0.11291964 0.89681244
0.2790983 0.11489996 0.89338887
0.275904 0.12395586 0.89706665
0.27947989 0.12376152 0.89416003
0.27619338 0.13199158 0.89766675
0.28120813 0.13379516 0.8938058
0.28283259 0.14295509 0.89416015
0.28568107 0.1534532 0.89525002
0.28663251 0.16330774 0.89700007
0.28919572 0.16361307 0.89377284
0.28617316 0.16998841 0.89800006
0.29021657 0.17360285 0.89464724
0.29245204 0.18351895 0.89528883
0.29409239 0.19249998 0.89571893
0.2976855 0.1969953 0.89200002
0.2961289 0.19906311 0.89666671
0.29842302 0.19920899 0.89266664
