# .PCD v0.7 - Point Cloud Data file format
VERSION 0.7
FIELDS x y z
SIZE 4 4 4
TYPE F F F
COUNT 1 1 1
WIDTH 98
HEIGHT 1
VIEWPOINT 0 0 0 1 0 0 0
POINTS 98
DATA ascii
0.040093124 0.19552219 0.63250005
0.041810252 0.16779847 0.64200002
0.06410905 0.16668354 0.64200002
0.036753215 0.17543973 0.63953841
0.044717293 0.17397901 0.6410476
0.053766437 0.17465724 0.64104098
0.064032823 0.1743816 0.6408667
0.073775165 0.17539567 0.64143193
0.080319844 0.17647982 0.64171427
0.1023616 0.17760094 0.64183336
0.034930259 0.18352377 0.63853103
0.045020375 0.1832585 0.63934815
0.054692321 0.18329988 0.63925868
0.064141147 0.18282609 0.64011818
0.074044809 0.18315847 0.64112294
0.084053367 0.18381399 0.64171863
0.091583729 0.1849242 0.64108002
0.10321748 0.18119383 0.64169711
0.11664787 0.18570642 0.64136362
0.034524664 0.19286013 0.6367951
0.045063008 0.19287308 0.63882601
0.054904934 0.19277275 0.63869131
0.064252473 0.19132508 0.64002019
0.074204482 0.19141926 0.6405555
0.083890386 0.19262017 0.64024967
0.09353599 0.19174331 0.64070165
0.10556596 0.19385526 0.64178574
0.11347461 0.19163179 0.64135724
0.04682748 0.19901679 0.64200002
0.053625662 0.1983968 0.64000005
0.088738889 0.12616232 0.65300006
0.09072347 0.12757988 0.65300006
0.12091954 0.12715027 0.65224999
0.077238448 0.13719995 0.65146154
0.08478377 0.13415872 0.65221643
0.092865564 0.13488816 0.65299994
0.10370366 0.13508908 0.65299994
0.11509752 0.13452607 0.65295547
0.12020858 0.13325009 0.653
0.065912761 0.14580944 0.64878786
0.074232042 0.14397983 0.65011728
0.084205255 0.1438825 0.65124446
0.094269261 0.14360073 0.65188503
0.10372943 0.14361592 0.65179348
0.11314455 0.144446 0.65263629
0.12001958 0.13929832 0.65300006
0.057621457 0.15542461 0.64768183
0.064602487 0.15354833 0.64751232
0.074216448 0.1535728 0.64810938
0.084071547 0.15324326 0.64854544
0.093929954 0.1534346 0.64865106
0.103666 0.15336329 0.64866668
0.11349241 0.15324207 0.65017605
0.11927514 0.14866996 0.65100002
0.046956532 0.16599905 0.64475006
0.054841299 0.16342874 0.64481467
0.06444452 0.16301161 0.6453501
0.074488156 0.1631577 0.64547515
0.084190018 0.16292618 0.64615875
0.093936257 0.16324849 0.64658964
0.10412481 0.16348542 0.64810574
0.11373659 0.16333911 0.64961272
0.11945836 0.16305217 0.65200001
0.045303263 0.17015213 0.64411122
0.05492305 0.17041974 0.64436871
0.064295962 0.16996801 0.64422607
0.074738935 0.17089403 0.64463085
0.084716342 0.17273805 0.64444214
0.094391488 0.17297418 0.64439803
0.10411548 0.17317557 0.64594591
0.11376347 0.17347524 0.64721042
0.11935813 0.17310373 0.65057147
0.085126996 0.18117072 0.64404356
0.095351607 0.18213168 0.64401704
0.10467523 0.18451348 0.64402974
0.11315887 0.18228467 0.64457196
0.12001105 0.18225753 0.64583337
0.096898429 0.19313912 0.64436364
0.1037198 0.19207551 0.64414597
0.11090932 0.19083862 0.64400005
0.046973363 0.19963679 0.64400005
0.053124636 0.19963679 0.64400005
0.096743837 0.19883075 0.64775002
0.10044706 0.19920552 0.64866668
0.096681967 0.11660294 0.65809524
0.10380123 0.11529142 0.65741682
0.087317474 0.12651713 0.6553334
0.094618686 0.12370358 0.65686142
0.10398703 0.12396098 0.65754831
0.11364529 0.12380363 0.65735048
0.12014633 0.12425043 0.65699995
0.085124165 0.1298665 0.65500003
0.095694415 0.13203742 0.65511125
0.1043004 0.13231538 0.65604538
0.11277698 0.13218716 0.65528584
0.1188705 0.12910815 0.65500003
0.11507877 0.14223701 0.65499991
0.11896124 0.14229856 0.65550005
