# .PCD v0.7 - Point Cloud Data file format
VERSION 0.7
FIELDS x y z
SIZE 4 4 4
TYPE F F F
COUNT 1 1 1
WIDTH 109
HEIGHT 1
VIEWPOINT 0 0 0 1 0 0 0
POINTS 109
DATA ascii
0.027851794 0.18772107 0.6415
0.035829317 0.18683624 0.64133334
0.043165911 0.18696809 0.64188892
0.054011572 0.18691321 0.64194745
0.06201116 0.18619101 0.64171427
0.086407855 0.18786739 0.64200002
0.01951145 0.19678691 0.64200002
0.02478984 0.19270425 0.64079136
0.035307631 0.19138724 0.64051831
0.044615906 0.19205888 0.64060336
0.053608231 0.19187708 0.64142859
0.062622368 0.19021077 0.64178962
0.085400879 0.19509442 0.6409356
0.09125293 0.19523646 0.64057899
0.022194602 0.19808681 0.63900006
0.085426778 0.19840477 0.63883334
0.089333266 0.19808681 0.63900006
0.067001991 0.14772053 0.65280002
0.073934697 0.14483705 0.65299994
0.082974173 0.14761464 0.65300006
0.10830114 0.14742564 0.65300006
0.11434937 0.14704762 0.65300006
0.12134264 0.14685862 0.65300006
0.058201876 0.15680787 0.64933342
0.064800411 0.15355535 0.65100032
0.074173778 0.15380235 0.65232003
0.084351249 0.15357473 0.65238768
0.094217457 0.15489483 0.65229112
0.1035597 0.15460117 0.65287268
0.11229368 0.15524964 0.65294117
0.12090317 0.15627541 0.65233338
0.046729751 0.16686627 0.64834988
0.054820519 0.16378717 0.64824986
0.064225845 0.16339053 0.6493721
0.074075855 0.16345641 0.65005851
0.084115148 0.1637044 0.6501224
0.094274491 0.16328324 0.65040296
0.10411847 0.16352867 0.65165305
0.113849 0.16384937 0.65274328
0.12051613 0.16525893 0.65227771
0.036826249 0.1752321 0.64436376
0.04441791 0.17338113 0.64582282
0.054613493 0.17328195 0.64682341
0.064497292 0.17343771 0.64656788
0.073890604 0.17328784 0.64730763
0.08376082 0.17355958 0.64727819
0.09407077 0.17319253 0.64897549
0.10394049 0.17341925 0.65054208
0.11362428 0.17341793 0.6510945
0.12004085 0.17203136 0.65082347
0.028631682 0.18538176 0.64471436
0.034637425 0.18282916 0.64428622
0.04457413 0.18272559 0.64470309
0.054354224 0.18234117 0.64437193
0.06448447 0.18311824 0.64516693
0.074254118 0.18343428 0.64550012
0.083967067 0.18327485 0.64646822
0.09381032 0.18293807 0.64690346
0.10404636 0.18299878 0.6475293
0.11421764 0.18285875 0.64796257
0.1206732 0.18350902 0.64666671
0.019071838 0.19382204 0.64427274
0.024045886 0.18845265 0.64400005
0.037466846 0.18845265 0.64400005
0.043058913 0.18845265 0.64400005
0.053124636 0.19236711 0.64400005
0.065785691 0.19112942 0.64417404
0.074626192 0.19004527 0.6448276
0.083863251 0.19175637 0.64466703
0.094593152 0.19152156 0.64592159
0.10400797 0.19223647 0.64692396
0.11366825 0.191699 0.64693719
0.11941928 0.19006109 0.64566672
0.11053537 0.10880825 0.66300005
0.097832724 0.11624812 0.66275007
0.10441328 0.11478966 0.66254377
0.11267364 0.1142961 0.66295463
0.11974665 0.11686813 0.66300005
0.088088803 0.12706886 0.66016668
0.094815508 0.12408625 0.66078949
0.10398798 0.12351622 0.6616168
0.11404441 0.12375043 0.66174966
0.12060811 0.12390285 0.66121876
0.077628329 0.13678497 0.65788889
0.084696762 0.13424969 0.65725392
0.094095759 0.13333809 0.65797472
0.10399378 0.1333275 0.65974993
0.11375456 0.1334192 0.65785754
0.1202 0.13386092 0.65560722
0.06853538 0.1461709 0.65500003
0.075488634 0.14357573 0.65534621
0.084428117 0.14375174 0.65588701
0.093996003 0.14349657 0.65661156
0.10409652 0.14351892 0.65630096
0.11352523 0.14316002 0.65597177
0.11993389 0.14374366 0.65572727
0.074886516 0.15034179 0.65500003
0.094206832 0.15015213 0.65520829
0.10457586 0.15135095 0.65507692
0.11401764 0.15330228 0.65516365
0.11985423 0.15316929 0.65504754
0.11678505 0.15944193 0.65500003
0.12114554 0.16209613 0.65500003
0.1163811 0.10578632 0.66884619
0.12059265 0.10571512 0.66876191
0.10105229 0.11260113 0.66500002
0.11512306 0.11358065 0.66525042
0.12116551 0.11378819 0.66552383
0.12338004 0.12030035 0.66500002
