# .PCD v0.7 - Point Cloud Data file format
VERSION 0.7
FIELDS x y z
SIZE 4 4 4
TYPE F F F
COUNT 1 1 1
WIDTH 147
HEIGHT 1
VIEWPOINT 0 0 0 1 0 0 0
POINTS 147
DATA ascii
0.078352764 0.18755263 0.7105
0.084388688 0.18595421 0.70809388
0.091221146 0.1842861 0.70980775
0.084137 0.19218367 0.70555097
0.091298632 0.19302922 0.70976663
0.087725811 0.17732808 0.72060007
0.094180793 0.17495102 0.71903908
0.1009189 0.17446733 0.72037512
0.076710343 0.18622473 0.71825004
0.083939806 0.18239616 0.716923
0.095452674 0.18222061 0.71399993
0.10271765 0.1838941 0.71980554
0.072051518 0.19155112 0.71618915
0.096527383 0.19299321 0.7133227
0.10248249 0.19236407 0.71726674
0.10971392 0.19748506 0.72200006
0.10720617 0.19873893 0.72200006
0.10941 0.19818841 0.72000003
0.098319218 0.16745852 0.73050004
0.10409189 0.16527113 0.72914916
0.11074976 0.16546319 0.73138463
0.086675495 0.1761689 0.7292223
0.094080091 0.1713631 0.72719228
0.10522583 0.17225653 0.7248888
0.11143699 0.17353337 0.73085201
0.074419744 0.18377674 0.72932023
0.082240514 0.17954683 0.72723812
0.10681444 0.1817932 0.72412503
0.11244881 0.18325917 0.72931933
0.070963845 0.18894431 0.72579992
0.10676396 0.19388373 0.72353327
0.11320456 0.19296348 0.72826809
0.1191152 0.19615233 0.73200005
0.11508653 0.19892885 0.72854543
0.12005013 0.19944793 0.73150003
0.1083599 0.15728296 0.74133331
0.11402079 0.15609322 0.74000007
0.120227 0.15566367 0.74200004
0.095719382 0.16632524 0.73984993
0.10352789 0.16145048 0.73732352
0.11408231 0.16218722 0.7368809
0.12026472 0.16356932 0.74136353
0.076840863 0.17572267 0.73947626
0.084100641 0.17318037 0.73826915
0.093010753 0.17021315 0.73757708
0.11656187 0.17274769 0.7359333
0.12190554 0.17377836 0.73940003
0.073307313 0.18000636 0.73563993
0.080240369 0.17857043 0.73533338
0.117569 0.1822665 0.73492312
0.12282059 0.18332863 0.73832601
0.12397025 0.19302462 0.73833328
0.12548828 0.19888414 0.73825002
0.11744644 0.14769083 0.75059998
0.1235812 0.14575638 0.74972427
0.10552237 0.15677616 0.74711108
0.11441199 0.15223804 0.74677777
0.12412856 0.15259136 0.74590009
0.13004681 0.15614139 0.75133342
0.087014496 0.1673453 0.74936372
0.094094016 0.16381642 0.74809539
0.10133866 0.15993913 0.74653333
0.12560229 0.16350232 0.74639392
0.13088332 0.16394828 0.7515555
0.085497193 0.16921362 0.74450004
0.089678861 0.16838981 0.74300003
0.12620126 0.17229335 0.74454999
0.13128778 0.17351054 0.74893755
0.12795906 0.18301371 0.74300003
0.13329151 0.18316215 0.74893028
0.12838916 0.18903531 0.74300003
0.13377373 0.19293767 0.74773479
0.13908616 0.19785497 0.75200003
0.13334338 0.19892611 0.7454167
0.12794155 0.13783532 0.75950003
0.13220701 0.13669305 0.76000011
0.11519982 0.14574704 0.75813329
0.12407821 0.1417845 0.75700003
0.1332649 0.14354868 0.7577799
0.096938916 0.15702063 0.75944448
0.10451031 0.15429093 0.75746161
0.11160602 0.15098512 0.75585729
0.13426669 0.1532125 0.75635713
0.13969085 0.15504645 0.76062506
0.087590158 0.16424064 0.75357151
0.09330941 0.16038914 0.75495845
0.10003982 0.15888678 0.75300002
0.13534538 0.16313037 0.75557148
0.13990384 0.16329971 0.76050001
0.15730901 0.15862539 0.75800002
0.1365658 0.1730855 0.75490487
0.14160204 0.17362589 0.75968975
0.13777301 0.18079594 0.75400007
0.14301297 0.18357204 0.75761902
0.14868037 0.18700688 0.76100004
0.14379321 0.19314295 0.75692153
0.13547738 0.12744316 0.77111113
0.14001311 0.1272842 0.77149999
0.12542325 0.13624145 0.76875865
0.13366698 0.13241196 0.7670784
0.14182898 0.13456051 0.76969999
0.10568469 0.14595252 0.76996148
0.11320965 0.14299661 0.7676
0.12119813 0.13991021 0.76571447
0.13847052 0.14310828 0.76300001
0.14377722 0.14336902 0.76827651
0.15136579 0.14734367 0.77200001
0.15887375 0.14814809 0.77200001
0.097827017 0.15337923 0.76466674
0.10294239 0.15103526 0.76486212
0.14442186 0.15299031 0.7671538
0.15353538 0.15377375 0.77182204
0.15922841 0.15327434 0.77155554
0.1448431 0.16340381 0.76535302
0.1531945 0.1632255 0.77041072
0.14609239 0.17255113 0.76370013
0.15312938 0.17307226 0.7688126
0.14729756 0.18043448 0.76324999
0.15337297 0.1831044 0.76659983
0.14587778 0.11777444 0.78072739
0.15319403 0.11646182 0.78091669
0.12833793 0.12833793 0.78200006
0.13435374 0.12547375 0.7772308
0.14351858 0.12332712 0.7767778
0.15387255 0.12360287 0.77982682
0.15927032 0.12503095 0.77957147
0.11599714 0.13683079 0.77852941
0.12321194 0.13288252 0.77758139
0.12937212 0.12937212 0.77600002
0.14615718 0.13249648 0.77415788
0.15316138 0.13322872 0.77688473
0.15900312 0.13415186 0.77700001
0.1076192 0.14118029 0.77300006
0.11268564 0.14001848 0.77400011
0.14833999 0.13961411 0.77300006
0.15406522 0.14357032 0.7764222
0.15899271 0.14329781 0.77749997
0.15352151 0.15002768 0.77340007
0.14427783 0.11405732 0.78850001
0.11807423 0.12762937 0.78600001
0.12443113 0.12645018 0.78751999
0.13340813 0.12296357 0.78789473
0.14041732 0.1192873 0.78500003
0.11626615 0.1324666 0.78517658
0.12138085 0.12980558 0.78490919
0.12595044 0.12238955 0.79333347
0.1314902 0.12025448 0.79346168
