# .PCD v0.7 - Point Cloud Data file format
VERSION 0.7
FIELDS x y z
SIZE 4 4 4
TYPE F F F
COUNT 1 1 1
WIDTH 93
HEIGHT 1
VIEWPOINT 0 0 0 1 0 0 0
POINTS 93
DATA ascii
0.18750791 0.18687229 0.73200005
0.18941477 0.18687229 0.73200005
0.17484312 0.19467284 0.73012137
0.18323857 0.19387959 0.73056883
0.19098262 0.19437259 0.73200023
0.18374842 0.19918706 0.72990912
0.19225074 0.19923635 0.73149997
0.19894907 0.19894907 0.73200005
0.20553277 0.16751888 0.74200004
0.19537532 0.17646985 0.73978567
0.20309502 0.17408901 0.74064171
0.21170737 0.17476727 0.74199992
0.22029319 0.17542621 0.74200004
0.25063401 0.17396191 0.74200004
0.18517447 0.18555178 0.73761773
0.19332829 0.1825494 0.73631144
0.20319876 0.18332282 0.73819625
0.21270297 0.18310741 0.74025798
0.2218511 0.18372488 0.741
0.2320857 0.18651699 0.74119979
0.23774794 0.18684798 0.74200004
0.17189737 0.19497553 0.73840922
0.18183501 0.18964303 0.73660004
0.19521968 0.19206887 0.73486674
0.20291092 0.19315428 0.73591667
0.21283825 0.19302456 0.73708189
0.22236222 0.19263774 0.73868316
0.23202932 0.19282092 0.7401967
0.24103674 0.19482885 0.74178964
0.20277667 0.19865961 0.73511112
0.21278259 0.19888361 0.73587501
0.22320694 0.19895416 0.73845446
0.23251238 0.19911151 0.7396875
0.23207144 0.14727025 0.75199991
0.25270584 0.14822797 0.75200003
0.21638867 0.1573817 0.75028569
0.2232354 0.15479328 0.75017029
0.23231708 0.15381996 0.75144458
0.24282587 0.15606384 0.75199997
0.25237778 0.15463516 0.75185728
0.20561281 0.164984 0.74476469
0.21317653 0.16328678 0.7462132
0.2227314 0.16313615 0.74565017
0.23259653 0.1633732 0.74866664
0.24261792 0.16308546 0.75054538
0.25096714 0.1633234 0.74938315
0.19454019 0.17651184 0.74680007
0.20152538 0.17094347 0.74626666
0.21358497 0.17149983 0.74300003
0.22322042 0.17234588 0.74348897
0.23275791 0.17351151 0.74698043
0.24248652 0.17305008 0.74777478
0.24978368 0.1729088 0.74559259
0.18315843 0.18585385 0.74800009
0.18992473 0.18062873 0.74942857
0.2246338 0.17981203 0.74318182
0.23291896 0.1817288 0.74449021
0.24289888 0.18301128 0.74547082
0.24977872 0.18338512 0.74555165
0.17413712 0.19333859 0.74649996
0.1792279 0.18959689 0.74650007
0.24427339 0.19078955 0.74351621
0.237027 0.13760631 0.75825006
0.24310622 0.13443193 0.75769985
0.22656107 0.14775561 0.75628573
0.23308446 0.14341913 0.75624985
0.24257487 0.14390171 0.75532216
0.25123525 0.14395922 0.75554079
0.21737945 0.15652722 0.75633335
0.2220031 0.1512702 0.75716662
0.23734938 0.15104051 0.75300002
0.24315256 0.15159354 0.75378782
0.24961038 0.15117154 0.75325012
0.21209092 0.16101134 0.75685722
0.19507249 0.17596953 0.75854164
0.20148264 0.17184103 0.75763172
0.18489313 0.18370873 0.75739998
0.18969932 0.18009174 0.75750005
0.17719471 0.19027181 0.75300002
0.17945065 0.18930015 0.75700003
0.23627599 0.13739562 0.76812506
0.24153537 0.13258655 0.76816678
0.22486688 0.14572871 0.76607996
0.23125575 0.1411016 0.76725709
0.21528552 0.15553343 0.76663995
0.21965812 0.15217319 0.76370603
0.20510472 0.16585723 0.77040011
0.21110199 0.16269892 0.76788896
0.19754757 0.17293641 0.76600003
0.20204361 0.17021529 0.7652632
0.2083783 0.16923672 0.76833338
0.18166801 0.18590827 0.76300001
0.22947879 0.13997534 0.77500004
