# .PCD v0.7 - Point Cloud Data file format
VERSION 0.7
FIELDS x y z
SIZE 4 4 4
TYPE F F F
COUNT 1 1 1
WIDTH 1419
HEIGHT 1
VIEWPOINT 0 0 0 1 0 0 0
POINTS 1419
DATA ascii
-0.2222119 0.16355708 0.75414068
-0.15619722 0.18398066 0.75336587
-0.15851568 0.11953229 0.73049444
-0.17688057 0.10544887 0.74786001
-0.20841749 0.14639662 0.75426877
-0.17624986 0.096159212 0.71640617
-0.15652654 0.12283531 0.74448371
-0.16318621 0.092949972 0.73124641
-0.15831999 0.11987177 0.73184508
-0.17075144 0.18363607 0.7192809
-0.18294811 0.19018264 0.72090358
-0.16207546 0.21017087 0.72474808
-0.16601317 0.18071464 0.75388563
-0.17751867 0.14884955 0.7519117
-0.21007374 0.15358491 0.71979964
-0.1759638 0.12278832 0.71411085
-0.18683769 0.18472409 0.75599593
-0.1858751 0.18404889 0.72058314
-0.19269718 0.12021639 0.72777528
-0.19286203 0.18018349 0.72081125
-0.14931202 0.19713077 0.71873176
-0.1639773 0.16590174 0.71708071
-0.18188865 0.10438664 0.71959072
-0.19042069 0.15920918 0.75394464
-0.21493573 0.17188551 0.73682243
-0.17920801 0.19679977 0.73508573
-0.16139235 0.11148067 0.71610922
-0.14710408 0.18756579 0.72315615
-0.14905788 0.17719628 0.72213179
-0.17566721 0.095262833 0.71445483
-0.14110835 0.21712732 0.73033601
-0.14681756 0.17547955 0.74758857
-0.18560198 0.19177832 0.73915273
-0.17130411 0.18935813 0.75512415
-0.15970883 0.10670916 0.7414512
-0.1893485 0.11519973 0.7212972
-0.14728291 0.17118032 0.7506091
-0.16000605 0.21191788 0.72261864
-0.17010401 0.17030014 0.75326812
-0.16872634 0.18723533 0.71944314
-0.14073716 0.22419342 0.7214368
-0.15568613 0.13233091 0.73593938
-0.19003928 0.1911879 0.72265476
-0.20432624 0.1441295 0.71844798
-0.19212988 0.17429093 0.72020721
-0.18737528 0.11236174 0.72162431
-0.1533677 0.2166734 0.72145277
-0.15932958 0.10839405 0.7422362
-0.18557829 0.17943279 0.72013319
-0.17079735 0.20409808 0.72510976
-0.17318715 0.17955892 0.71910888
-0.1494413 0.1763943 0.7197299
-0.15762223 0.21295881 0.72665048
-0.19435742 0.18348296 0.75419521
-0.19673184 0.15911892 0.71919399
-0.21708174 0.16995935 0.73979527
-0.16280635 0.10246114 0.71806973
-0.16941875 0.14915118 0.71599251
-0.14288267 0.21259072 0.72069633
-0.14223173 0.22255492 0.73348647
-0.16456684 0.080028757 0.74194849
-0.17823458 0.099093802 0.71888554
-0.20378003 0.17190753 0.75623131
-0.20656046 0.17620336 0.72158962
-0.15876557 0.1979247 0.75486523
-0.14781025 0.2200492 0.7245177
-0.19566326 0.18634494 0.72907668
-0.14187506 0.21373038 0.72873384
-0.14771628 0.20394714 0.71922648
-0.14723527 0.17671117 0.74121571
-0.14582582 0.18588774 0.73892826
-0.15524152 0.13789704 0.73045087
-0.20033583 0.17689949 0.72113335
-0.14882107 0.17555112 0.7274335
-0.16672689 0.083103299 0.71342516
-0.21573707 0.15343882 0.72693837
-0.17971148 0.10174998 0.73730928
-0.16865572 0.2044709 0.73248631
-0.15940215 0.13666213 0.71400452
-0.15770184 0.1180782 0.7412256
-0.14650092 0.17770839 0.74677581
-0.15102121 0.21222793 0.72026569
-0.16902211 0.12043773 0.74858391
-0.16003731 0.12670641 0.74841028
-0.17055903 0.094638161 0.74633557
-0.20381859 0.1776114 0.74980974
-0.17534943 0.11239328 0.74837166
-0.17273024 0.18839411 0.71988463
-0.14404933 0.1933955 0.7432881
-0.19174939 0.11889086 0.72925293
-0.19597887 0.16548425 0.71971756
-0.17108333 0.16184483 0.71730107
-0.15582004 0.17378494 0.71712512
-0.21513017 0.17176868 0.73670727
-0.20102111 0.13286227 0.75004107
-0.14727381 0.1837474 0.72827452
-0.16880172 0.14519528 0.75084633
-0.14967212 0.17282908 0.72378457
-0.1625825 0.20490272 0.75582713
-0.17864065 0.19068354 0.75585949
-0.19194397 0.17863119 0.72059143
-0.20205322 0.18186156 0.72957033
-0.19610901 0.18474917 0.73767537
-0.18633929 0.16478017 0.71884674
-0.17272459 0.19998695 0.74367398
-0.19023673 0.19036135 0.7215293
-0.17990579 0.10140908 0.71550941
-0.17975815 0.12731719 0.7148453
-0.17839734 0.15486021 0.71726906
-0.22352479 0.16517027 0.74208528
-0.14719197 0.20642787 0.75468117
-0.1517937 0.15753075 0.72987801
-0.20953493 0.17616171 0.73315549
-0.18506345 0.19126506 0.74505866
-0.21563642 0.1598829 0.75611478
-0.15790407 0.11624251 0.74247903
-0.21215011 0.16409168 0.72094101
-0.18275225 0.12096234 0.71451008
-0.20738672 0.14128049 0.72311723
-0.17227818 0.096698999 0.7113992
-0.18775576 0.19149829 0.7311011
-0.16800144 0.15201123 0.75140738
-0.18761311 0.18935934 0.72121781
-0.1485156 0.17997262 0.75235432
-0.2089666 0.14344065 0.71892291
-0.15501934 0.12969695 0.74730486
-0.1534286 0.13852495 0.74745172
-0.15865679 0.20226526 0.71998608
-0.18501419 0.11666771 0.71430349
-0.2141237 0.15131773 0.73420137
-0.14333884 0.20245329 0.73422611
-0.15742254 0.11849204 0.74327821
-0.21146236 0.16617386 0.72107542
-0.15019679 0.1732614 0.71776932
-0.1629148 0.12811692 0.74878073
-0.14395238 0.2067831 0.72036642
-0.18983553 0.18746226 0.7484616
-0.20308386 0.17241752 0.72095025
-0.15638787 0.21352626 0.72854829
-0.19174257 0.16273983 0.71911061
-0.1572493 0.12975271 0.72491521
-0.16197747 0.19071589 0.71919978
-0.19070981 0.16892433 0.71959406
-0.17377178 0.17553411 0.71878695
-0.1656297 0.20610379 0.73552471
-0.14987884 0.16745655 0.75131547
-0.15357982 0.14895193 0.72733361
-0.20259531 0.13500485 0.74551457
-0.16463734 0.12152359 0.74831736
-0.15400788 0.14565775 0.7289331
-0.22119138 0.16131079 0.72699487
-0.19027208 0.18621027 0.75480813
-0.14553961 0.1898897 0.73464811
-0.14067374 0.22357781 0.7338351
-0.16397901 0.16347519 0.75212723
-0.16017665 0.11809007 0.71646667
-0.16143441 0.11306235 0.71286559
-0.17948869 0.18627378 0.72025436
-0.16321053 0.10815695 0.7469666
-0.1472639 0.19577347 0.71843559
-0.15235862 0.21493396 0.73771042
-0.21318093 0.14990529 0.73237669
-0.16711371 0.19281517 0.75509226
-0.17108765 0.18848608 0.75502568
-0.14179012 0.2007829 0.75268775
-0.20052096 0.13181499 0.73861718
-0.14727461 0.21963334 0.72975987
-0.14637078 0.21750438 0.74813402
-0.19733962 0.16191851 0.71950281
-0.14738576 0.18175605 0.75242424
-0.15563922 0.18963289 0.71857005
-0.17425863 0.1931093 0.75571668
-0.17250736 0.1840232 0.71946335
-0.19538823 0.12396551 0.72306937
-0.13939428 0.22079103 0.74093181
-0.17021699 0.15209137 0.75159991
-0.22328521 0.16435587 0.72782266
-0.14972036 0.1743598 0.75193822
-0.14645536 0.18519877 0.73386532
-0.14830694 0.17097813 0.7407335
-0.19757582 0.12720834 0.72609663
-0.19818218 0.12803893 0.72453934
-0.18055294 0.10273381 0.72922486
-0.19273913 0.17009111 0.71987098
-0.16443475 0.14410463 0.75038075
-0.16937912 0.15021075 0.75135672
-0.19294757 0.13519524 0.75194359
-0.20916536 0.1646488 0.75601286
-0.17298932 0.18706314 0.75505352
-0.19800873 0.18020709 0.72124368
-0.20611292 0.14756872 0.75418413
-0.1623995 0.10422431 0.71899086
-0.142525 0.21449274 0.72087663
-0.18168683 0.17910777 0.75504792
-0.18368554 0.10683022 0.7143501
-0.15686934 0.13224719 0.72426194
-0.20598634 0.17804331 0.73694074
-0.19078895 0.18561266 0.75640804
-0.19491421 0.13355896 0.71668732
-0.15361106 0.15276912 0.72020882
-0.15323021 0.14939646 0.73003542
-0.21133907 0.14785081 0.75354552
-0.18791759 0.18230274 0.75586301
-0.18057497 0.19381519 0.74871159
-0.16423149 0.088717028 0.72835135
-0.21958841 0.16180281 0.7213521
-0.16277349 0.091681443 0.73763424
-0.15437783 0.20634082 0.75527376
-0.20888147 0.14387494 0.73847175
-0.1885574 0.18591991 0.72097969
-0.13822603 0.22271541 0.7508657
-0.17861903 0.12253708 0.71430969
-0.17880252 0.15317306 0.75241739
-0.15623085 0.15351927 0.71529251
-0.16762088 0.16210447 0.75230545
-0.17269231 0.12647946 0.71417737
-0.15284988 0.14365813 0.74937117
-0.14628641 0.18189639 0.74144667
-0.1907713 0.1295855 0.71597487
-0.20111011 0.13224235 0.72378206
-0.15856689 0.11348613 0.74077243
-0.14444883 0.20178095 0.7243309
-0.15501754 0.145091 0.71985292
-0.15180185 0.15388867 0.73629594
-0.16253428 0.10353888 0.71886647
-0.1559501 0.20913889 0.72039306
-0.17311451 0.20161133 0.72113448
-0.1671574 0.1581364 0.75190115
-0.18027334 0.13434756 0.75080597
-0.15371217 0.14734486 0.7288782
-0.1565645 0.21221125 0.73651212
-0.15128253 0.17186297 0.75183862
-0.17655538 0.097028941 0.73145413
-0.15323465 0.15090066 0.72730666
-0.13948575 0.21327546 0.75342894
-0.18136549 0.17970227 0.75507575
-0.17922331 0.10078106 0.72802818
-0.14017653 0.22015662 0.73424441
-0.14108777 0.21071987 0.74197656
-0.15780675 0.15043238 0.71513987
-0.18433933 0.10832853 0.73382246
-0.14747582 0.17125186 0.74855286
-0.15470062 0.1581741 0.71559328
-0.14745316 0.20348786 0.75443202
-0.17053288 0.19524461 0.72033209
-0.16817895 0.11832772 0.74831897
-0.14742956 0.17326944 0.74541521
-0.14759608 0.2016201 0.75427192
-0.18283129 0.13982423 0.75152433
-0.1750178 0.094649523 0.72581464
-0.17801963 0.17326945 0.7189334
-0.18330164 0.14248085 0.71653843
-0.19659983 0.15535672 0.71883649
-0.17242889 0.15981871 0.71722692
-0.14862673 0.21303523 0.72013986
-0.17646755 0.096457608 0.71585482
-0.14080918 0.22287163 0.72307563
-0.15337391 0.21560819 0.72853422
-0.14690387 0.1989142 0.71869475
-0.19848526 0.18463932 0.7274642
-0.21582296 0.16792032 0.75687093
-0.20243669 0.13438691 0.73186392
-0.14793733 0.180124 0.72810757
-0.1747404 0.20076533 0.72919393
-0.15893662 0.14354326 0.71459961
-0.15728767 0.15450789 0.71547186
-0.21196434 0.16973859 0.75671571
-0.16622359 0.099412329 0.71114302
-0.14360893 0.20322911 0.73014188
-0.17485933 0.15529844 0.75228357
-0.15807229 0.20544776 0.72023034
-0.22020486 0.16614857 0.75084716
-0.16528329 0.11979076 0.74821174
-0.17798996 0.16498873 0.75343788
-0.1630878 0.18967952 0.75446695
-0.18797442 0.14970173 0.75286424
-0.17911795 0.16354656 0.75339949
-0.20931752 0.14416789 0.72667199
-0.20444298 0.17889397 0.72166049
-0.19954343 0.12998061 0.7237438
-0.15837479 0.21323003 0.72137326
-0.18287118 0.10632303 0.73778838
-0.20433977 0.13753231 0.74587321
-0.16589522 0.16476196 0.71713609
-0.15270813 0.16008654 0.71617728
-0.15153702 0.21508317 0.74049997
-0.17996012 0.19736043 0.72787851
-0.1538642 0.14304833 0.73502499
-0.20551591 0.17694905 0.74641263
-0.15509 0.14254773 0.72366589
-0.18664195 0.11912856 0.74993622
-0.20758948 0.17814456 0.7288813
-0.16500573 0.18920721 0.75458378
-0.20116781 0.14983205 0.75397921
-0.18607056 0.19330978 0.7267713
-0.18218324 0.15626831 0.75298518
-0.14751214 0.18079336 0.73116237
-0.16741352 0.14146054 0.7503863
-0.199974 0.1705495 0.75578809
-0.16834334 0.096940391 0.71109241
-0.1925994 0.18861081 0.72156566
-0.21161708 0.14752127 0.72790611
-0.1877117 0.18151595 0.75577319
-0.19274753 0.12031896 0.72882181
-0.16603769 0.10923367 0.71203226
-0.15096991 0.20059492 0.75445956
-0.15933871 0.14067361 0.74963868
-0.15976395 0.16690667 0.71682113
-0.19646104 0.18621993 0.72623754
-0.22031708 0.16217229 0.72144699
-0.16223142 0.091947995 0.74257755
-0.14052795 0.22128281 0.74982542
-0.19888364 0.12945786 0.7388103
-0.16504572 0.15734704 0.75165188
-0.16741425 0.11203989 0.74767578
-0.19635335 0.12713632 0.71621597
-0.16488743 0.12307213 0.71321112
-0.21690771 0.1566152 0.72065014
-0.16308838 0.10187579 0.71629554
-0.19802804 0.1330137 0.71689743
-0.16516469 0.14601143 0.75061738
-0.15781502 0.16344023 0.71633887
-0.18977419 0.13623308 0.75177389
-0.15744033 0.17480703 0.71735466
-0.22332162 0.16697386 0.73098171
-0.2131362 0.17512898 0.72346157
-0.15926827 0.1249105 0.71337539
-0.16538981 0.084014811 0.725164
-0.14912616 0.17139317 0.73180437
-0.17503527 0.17012936 0.75366449
-0.1591872 0.11325216 0.7349897
-0.14449365 0.2056513 0.71911412
-0.18031403 0.19577402 0.73683769
-0.16118005 0.14974548 0.71535844
-0.22235595 0.16333526 0.73906356
-0.15566795 0.21246457 0.73895079
-0.16365965 0.20887007 0.72613382
-0.17935683 0.12631956 0.74998969
-0.17142498 0.10328562 0.7472046
-0.1664671 0.084006086 0.71441102
-0.20533624 0.15186967 0.71924549
-0.16385183 0.11843366 0.71269709
-0.15243103 0.14540806 0.74514067
-0.17731658 0.1130616 0.7485978
-0.19091837 0.17532916 0.72020155
-0.19251084 0.1348183 0.75187236
-0.15498821 0.15970792 0.71575856
-0.1621877 0.091593146 0.74364895
-0.18181406 0.10626774 0.71307796
-0.17779976 0.12556466 0.71452016
-0.19012894 0.14193961 0.75232929
-0.20670086 0.17806302 0.73351902
-0.19353442 0.14705917 0.71781576
-0.15390553 0.15183705 0.71892971
-0.16009095 0.20791483 0.74894816
-0.15043771 0.16260055 0.73438525
-0.18473969 0.19009483 0.75436145
-0.17489029 0.19881743 0.74150538
-0.16690147 0.13798183 0.75002307
-0.19526187 0.18682 0.72775435
-0.16592966 0.13043404 0.71397644
-0.21416098 0.17231195 0.73754495
-0.16442651 0.083138004 0.73635787
-0.17522058 0.17866641 0.71919668
-0.147817 0.17298256 0.74205416
-0.15294582 0.15266861 0.7270385
-0.20006324 0.13134241 0.7452082
-0.15642338 0.13393354 0.72570992
-0.16244811 0.099997528 0.72604728
-0.21920434 0.168411 0.72192872
-0.19059901 0.16135624 0.75415742
-0.21965708 0.16813584 0.74010491
-0.18868586 0.11442729 0.7277416
-0.13814205 0.22167109 0.75187856
-0.21213283 0.17063688 0.72154266
-0.19089995 0.1183969 0.75022477
-0.18468021 0.17944284 0.72005898
-0.16397911 0.092226245 0.72461134
-0.16836326 0.18833764 0.75478429
-0.2115557 0.1712895 0.72155452
-0.16875713 0.14289711 0.71536088
-0.16566677 0.08808969 0.71512407
-0.16338919 0.2083925 0.73056769
-0.16246103 0.10367637 0.7193532
-0.15398069 0.15159026 0.71861798
-0.18176575 0.13964462 0.71614885
-0.15475942 0.13194779 0.74588698
-0.182827 0.19577406 0.72526282
-0.16260356 0.19017713 0.71920234
-0.15783952 0.12100315 0.73462915
-0.1611788 0.18209028 0.75360811
-0.16068053 0.21006277 0.73189408
-0.15537056 0.14179873 0.72219867
-0.18803984 0.1895916 0.74251986
-0.16171691 0.09709128 0.73854202
-0.15941007 0.19784309 0.71964163
-0.1635914 0.087164059 0.74506444
-0.16563191 0.11880914 0.71288055
-0.16497929 0.20725724 0.73082113
-0.15531063 0.19531474 0.75433594
-0.16649061 0.12012029 0.71307313
-0.20663655 0.14099889 0.75122124
-0.17896114 0.13711622 0.71568149
-0.1868449 0.11426513 0.71423525
-0.16996379 0.19204839 0.75525993
-0.14400591 0.19453222 0.74169344
-0.16148052 0.17192443 0.7174269
-0.16933183 0.10538974 0.74722332
-0.21404473 0.17058125 0.74963284
-0.17377156 0.11593977 0.71329665
-0.16149458 0.17789963 0.75324851
-0.20915464 0.15228653 0.71960318
-0.16570932 0.088073298 0.71472806
-0.19975951 0.18302907 0.72165006
-0.16998591 0.08754053 0.73114431
-0.20625329 0.17094864 0.72107995
-0.14245285 0.21690284 0.71998006
-0.15507755 0.13004318 0.74610537
-0.15771413 0.21250637 0.72924805
-0.16386367 0.09428487 0.74574327
-0.14267486 0.20261884 0.74056822
-0.15017812 0.19336233 0.75372684
-0.16815591 0.14842474 0.71582001
-0.18104649 0.10345566 0.72956401
-0.20336752 0.17531487 0.75651079
-0.20111337 0.14400348 0.75343776
-0.21933664 0.15848675 0.72180766
-0.19557911 0.17524338 0.75585318
-0.21205977 0.17298152 0.7427541
-0.15057433 0.16326866 0.75098759
-0.15445141 0.20693475 0.7200647
-0.1599061 0.15800042 0.71601248
-0.17336074 0.092406541 0.73101383
-0.18883888 0.11527153 0.7496196
-0.1792907 0.10091292 0.72924179
-0.1526902 0.15975823 0.71694165
-0.16538872 0.11726981 0.74798834
-0.20784393 0.17536604 0.74625558
-0.18755636 0.17894872 0.72025377
-0.17743126 0.0980452 0.71195394
-0.18954708 0.12172363 0.75041819
-0.22168373 0.16633606 0.74278337
-0.19330983 0.16340938 0.71930325
-0.20204756 0.16402556 0.75536031
-0.15615241 0.19573906 0.75444531
-0.18308882 0.11425644 0.71392035
-0.16573608 0.14646289 0.75070685
-0.18182562 0.11260219 0.74893242
-0.22090295 0.16140547 0.74491954
-0.16110723 0.10032616 0.73886383
-0.2084415 0.14278853 0.72262657
-0.16236448 0.2087746 0.72089571
-0.15072957 0.15732712 0.74087864
-0.16757661 0.20614789 0.72626191
-0.14206402 0.22207287 0.73747635
-0.1685213 0.20145871 0.75321114
-0.16002004 0.11166251 0.7295019
-0.18939731 0.11589767 0.74331784
-0.17810684 0.19414994 0.72086447
-0.17644159 0.15612602 0.71722203
-0.15503246 0.14426021 0.74960911
-0.16987559 0.091457047 0.74598521
-0.15407862 0.139506 0.73920405
-0.1638018 0.20871469 0.72651637
-0.16565247 0.098797761 0.74630857
-0.16629104 0.14059407 0.71494269
-0.15500686 0.21247903 0.74190015
-0.19474924 0.15119037 0.75356776
-0.17639978 0.09679053 0.73096544
-0.2214455 0.16190936 0.73512816
-0.20807534 0.14371558 0.71872324
-0.223453 0.164801 0.73494685
-0.18255308 0.117132 0.74941057
-0.14785601 0.18465854 0.75273103
-0.20459351 0.14414366 0.71847159
-0.18656279 0.13369586 0.75127155
-0.16851537 0.20388053 0.72095907
-0.16449735 0.083236389 0.73547322
-0.21048042 0.15151444 0.71964276
-0.16302076 0.099725038 0.72080988
-0.22131893 0.16848713 0.73010498
-0.21081573 0.16115172 0.7205587
-0.15313555 0.18773949 0.75345612
-0.17324214 0.12304688 0.71390718
-0.1592398 0.20860901 0.7206192
-0.18160105 0.10396526 0.71936613
-0.17969601 0.1652084 0.75360084
-0.15668707 0.13833547 0.71521908
-0.16498907 0.084657326 0.72802317
-0.13890201 0.22116378 0.74518728
-0.18386155 0.10824008 0.74870068
-0.21729603 0.16982464 0.73970717
-0.19288042 0.17938285 0.7560088
-0.20174097 0.18035097 0.74109209
-0.17852126 0.11997155 0.74933505
-0.1582474 0.1348937 0.74901497
-0.15685225 0.12755975 0.73279792
-0.16790377 0.2016222 0.75496447
-0.16371252 0.10059844 0.71233636
-0.17360052 0.10008579 0.74709171
-0.19236036 0.15861565 0.71878219
-0.1755258 0.095116861 0.71649277
-0.16877295 0.19784716 0.72042489
-0.16346768 0.09026143 0.73323011
-0.18083566 0.13967581 0.75134379
-0.16291554 0.10366782 0.71482521
-0.1804107 0.13129809 0.71526664
-0.18340032 0.17047329 0.75439554
-0.20883794 0.16968089 0.72117919
-0.17075105 0.15442409 0.75185961
-0.19829805 0.16188352 0.71957958
-0.15635452 0.16552465 0.71640873
-0.19225328 0.11985355 0.73751754
-0.21904774 0.15925254 0.7563417
-0.14053968 0.20853478 0.75135338
-0.16096544 0.20810182 0.74367154
-0.18440652 0.14079742 0.71647584
-0.19650106 0.1478824 0.75340939
-0.17864092 0.10290153 0.7125026
-0.17176315 0.09029568 0.73783666
-0.15284328 0.21655907 0.72463048
-0.14149742 0.21696056 0.72674447
-0.18715495 0.1532305 0.71785098
-0.1487323 0.17376463 0.73150975
-0.14289972 0.20321472 0.73725653
-0.16825587 0.13806994 0.75014418
-0.15811108 0.11909485 0.73531985
-0.15776907 0.14024821 0.74946833
-0.16871634 0.085866489 0.73668778
-0.17419972 0.099801622 0.71184564
-0.19463274 0.15559989 0.75396425
-0.15368837 0.20327918 0.71966416
-0.19211429 0.18629232 0.74577427
-0.17585105 0.096434735 0.74626631
-0.14772242 0.17293979 0.74307591
-0.15034831 0.21041316 0.75531197
-0.14956255 0.16933689 0.73111212
-0.16367458 0.13279103 0.74927503
-0.17280072 0.12066035 0.71365041
-0.16007157 0.1197349 0.71458095
-0.16022195 0.11253053 0.72593462
-0.14331095 0.20520802 0.7295897
-0.15480398 0.21344508 0.7363863
-0.18178381 0.1777005 0.75492626
-0.16974144 0.20005959 0.75597948
-0.1640272 0.098655626 0.71265757
-0.15651385 0.14250234 0.74957103
-0.19804759 0.18053254 0.72127682
-0.14770874 0.18035743 0.72997612
-0.1616524 0.12541041 0.7484259
-0.14693362 0.18207808 0.73465335
-0.21025012 0.16825952 0.75643617
-0.1721939 0.15330414 0.75187689
-0.16339433 0.10127568 0.71430796
-0.20985666 0.15827088 0.72021317
-0.14385571 0.19179082 0.74808687
-0.19618644 0.18510884 0.73491794
-0.19356838 0.1214743 0.72780204
-0.18645769 0.11782668 0.7498008
-0.21719831 0.16629711 0.72156626
-0.19322748 0.18679658 0.7372821
-0.16295131 0.17000751 0.75264311
-0.15537153 0.13148066 0.74060124
-0.19341868 0.17865162 0.75598651
-0.16832414 0.13992076 0.75032055
-0.13797557 0.22231965 0.75466061
-0.17260061 0.099581309 0.74696153
-0.15163651 0.1529337 0.73965263
-0.14277162 0.20467052 0.73593926
-0.14536969 0.21971527 0.73798752
-0.21751474 0.15639672 0.74072176
-0.16668336 0.17487726 0.71813387
-0.15226389 0.18144442 0.75280344
-0.1952351 0.13901776 0.71721703
-0.16999336 0.09609507 0.71115243
-0.18664421 0.11180426 0.73908025
-0.15727274 0.12771258 0.72832114
-0.14848301 0.16477442 0.75004476
-0.148366 0.20476936 0.7193566
-0.15208638 0.16087741 0.72098047
-0.17264634 0.15143698 0.71647298
-0.15593791 0.17461713 0.71721154
-0.14412563 0.19528273 0.7391575
-0.18506578 0.12870952 0.71541733
-0.20033512 0.13209859 0.71700597
-0.20620042 0.1400144 0.73875773
-0.14908734 0.1646976 0.7441411
-0.15363769 0.15365008 0.75035745
-0.16903193 0.086095788 0.72875547
-0.15589872 0.1551805 0.7506876
-0.22392081 0.16515787 0.72378558
-0.15461563 0.16528168 0.71624094
-0.193831 0.13480453 0.75198144
-0.1690926 0.20384982 0.7346192
-0.15365204 0.13961837 0.74326742
-0.19485196 0.12866898 0.7515015
-0.16507226 0.18187679 0.71864414
-0.17208304 0.10863437 0.71248239
-0.20141421 0.1542536 0.75440705
-0.20880353 0.14741927 0.75439525
-0.15418124 0.20508552 0.75514168
-0.1913503 0.18858066 0.73401874
-0.14183526 0.20783511 0.73965216
-0.16199395 0.10897339 0.71456957
-0.19207203 0.11901716 0.71734405
-0.19282947 0.12085039 0.74332112
-0.14312404 0.22229135 0.73113662
-0.16116644 0.10880394 0.7231434
-0.16963099 0.087344721 0.7422455
-0.19904338 0.12926102 0.72381479
-0.14736134 0.17577499 0.75187123
-0.16152751 0.10869909 0.71972162
-0.14335997 0.20209983 0.73464555
-0.1719107 0.11891042 0.74868459
-0.16240634 0.20959969 0.72703642
-0.1589538 0.11658742 0.73137116
-0.14147414 0.21519956 0.73011947
-0.1399737 0.22211441 0.73277879
-0.21918836 0.17045414 0.72678936
-0.14106557 0.21616451 0.73248136
-0.1740616 0.09287481 0.7119568
-0.19898526 0.15341352 0.71885675
-0.16416229 0.098093048 0.71231103
-0.14735103 0.17492008 0.74325484
-0.16099101 0.20795844 0.74451113
-0.1612234 0.11266261 0.71568835
-0.15243737 0.15959746 0.7508052
-0.19417632 0.13400799 0.71666712
-0.15347879 0.14721997 0.73143435
-0.151576 0.20603028 0.71974093
-0.16233453 0.1827772 0.75376803
-0.17690203 0.1649802 0.71807617
-0.20113973 0.16112894 0.75501758
-0.1540947 0.14824195 0.74989754
-0.16288367 0.098605841 0.72417676
-0.15153645 0.15269421 0.74107975
-0.15791455 0.14265512 0.7144323
-0.17638679 0.18560447 0.71993327
-0.21282172 0.15527412 0.75545496
-0.18488301 0.14455959 0.752132
-0.17500395 0.20021032 0.7316854
-0.16166259 0.10978076 0.71644104
-0.20298442 0.1582903 0.75491017
-0.16991672 0.1790956 0.71879286
-0.18116152 0.19553773 0.73451155
-0.1838315 0.16016221 0.75348163
-0.17627329 0.19890703 0.73453695
-0.15062045 0.16852246 0.72199088
-0.13951136 0.22065189 0.74000919
-0.14130554 0.2233883 0.73219031
-0.14608108 0.19384135 0.72218347
-0.19521397 0.12909144 0.75157058
-0.19313076 0.17460075 0.75558919
-0.208059 0.16288891 0.75575829
-0.16756576 0.083499156 0.71187848
-0.15012902 0.21612452 0.74003339
-0.19022593 0.15689769 0.7537154
-0.14216775 0.21262756 0.72777671
-0.19783875 0.12869535 0.75175375
-0.15446258 0.17944264 0.71753287
-0.21895219 0.16974509 0.73260957
-0.18227676 0.17937592 0.71985179
-0.18272582 0.18057398 0.75526965
-0.1865551 0.1900776 0.72119558
-0.15280463 0.21678029 0.72333163
-0.2075213 0.15531558 0.75501555
-0.16338331 0.090084344 0.73438948
-0.19728045 0.12724942 0.74249285
-0.19963506 0.13053618 0.7385999
-0.17164412 0.099071868 0.7468347
-0.14137042 0.20485768 0.74961084
-0.16368817 0.13941424 0.7146163
-0.16817434 0.11751323 0.74824363
-0.16774748 0.16068433 0.71691519
-0.15971224 0.11553075 0.72567528
-0.20764124 0.17442577 0.75346583
-0.143593 0.20698544 0.72359788
-0.1461851 0.17914392 0.74737191
-0.20194095 0.18203941 0.72890043
-0.14160682 0.21891394 0.72216517
-0.15914652 0.12075783 0.72200209
-0.16956091 0.15271248 0.71633255
-0.16542742 0.082766302 0.72701627
-0.18425828 0.11995874 0.7498135
-0.19852415 0.12877174 0.73293591
-0.143592 0.20890284 0.72018695
-0.15766573 0.13930757 0.74937308
-0.17610756 0.16919717 0.71839833
-0.14843211 0.17831294 0.72639304
-0.14301008 0.20329049 0.73601848
-0.17453471 0.17199415 0.75379461
-0.15470621 0.1419232 0.72861683
-0.16840468 0.14860839 0.75112754
-0.21919602 0.15844591 0.72749728
-0.21939291 0.15934668 0.74913555
-0.17501499 0.14918324 0.75173318
-0.21363021 0.15049614 0.73036039
-0.16550004 0.081031591 0.72988641
-0.19880384 0.16712883 0.72010529
-0.20308949 0.14287162 0.71822876
-0.14708079 0.19369379 0.7182287
-0.16948237 0.18105944 0.75420737
-0.1627499 0.091645852 0.73793441
-0.16515045 0.15762146 0.716416
-0.20575263 0.17910592 0.73092473
-0.15518887 0.1401422 0.72697121
-0.15491571 0.14074785 0.72862005
-0.15256265 0.21414177 0.74205899
-0.19975327 0.17171326 0.75587684
-0.20062198 0.16505107 0.75533563
-0.16072962 0.21132867 0.72321868
-0.14809035 0.16979332 0.745013
-0.19390699 0.14601567 0.75302064
-0.20005092 0.16223678 0.71975869
-0.17749405 0.15083566 0.7168228
-0.16614278 0.15324394 0.7513656
-0.17393096 0.18266165 0.75472671
-0.15603048 0.19223683 0.7541126
-0.15581675 0.12616603 0.74563503
-0.16249514 0.20386709 0.75572443
-0.20683627 0.14132312 0.75248539
-0.21195225 0.14777316 0.71977454
-0.1534234 0.15128088 0.75012147
-0.18686293 0.13132682 0.71580857
-0.16636537 0.082211927 0.71862918
-0.16361035 0.095931634 0.72168565
-0.17928411 0.15536569 0.71738976
-0.14446914 0.18628092 0.75178754
-0.15479308 0.18200617 0.75306678
-0.20338306 0.13573566 0.73127437
-0.16909616 0.20429611 0.73162365
-0.15487924 0.14480484 0.72174436
-0.20170827 0.17925212 0.74857748
-0.16663909 0.2045164 0.74147105
-0.2001989 0.17674291 0.75637752
-0.16751622 0.20414348 0.73992032
-0.17297909 0.12687419 0.71423781
-0.15378442 0.13914411 0.7427907
-0.16122647 0.15232214 0.75086957
-0.19188313 0.18027367 0.7207377
-0.20447128 0.15149766 0.75440884
-0.1986489 0.17237924 0.72057593
-0.2087623 0.14401343 0.718808
-0.18994185 0.18768415 0.74649054
-0.20409191 0.1635928 0.75549144
-0.1732963 0.15558775 0.71690953
-0.17779672 0.19808111 0.72120064
-0.19282533 0.12016572 0.71950573
-0.16975583 0.2042769 0.72871304
-0.2155955 0.15337473 0.73185968
-0.1545472 0.13579413 0.74114382
-0.15131497 0.15976335 0.7306785
-0.1495249 0.21110082 0.72003669
-0.15329742 0.14123882 0.74392015
-0.17232092 0.11227022 0.7128374
-0.14722915 0.18458295 0.72722989
-0.14549012 0.18195586 0.74929965
-0.20649906 0.14702317 0.75416607
-0.17496856 0.11117578 0.74822778
-0.16578746 0.13539445 0.71442145
-0.18584232 0.11016293 0.7220856
-0.13826482 0.21954645 0.75444275
-0.14861895 0.17232955 0.73520315
-0.13850643 0.22194256 0.74775124
-0.19252628 0.13282736 0.75169021
-0.1726528 0.091749541 0.74380416
-0.1557474 0.14158024 0.71882135
-0.17550872 0.095644325 0.73586351
-0.16758074 0.18806897 0.71942419
-0.18039434 0.1366758 0.71576071
-0.16027313 0.11138632 0.74701864
-0.14024416 0.21238616 0.74743456
-0.18932547 0.18903622 0.74030513
-0.17717025 0.110997 0.71312535
-0.1847773 0.1088576 0.73021072
-0.18857577 0.14563709 0.75254011
-0.21228874 0.14872734 0.73621953
-0.15654749 0.12590171 0.73880213
-0.16306098 0.19002946 0.71922708
-0.20052937 0.16403461 0.7552343
-0.16621982 0.081984617 0.72688085
-0.15330617 0.15003395 0.72813749
-0.14758959 0.17732519 0.73657769
-0.19114889 0.12818803 0.71587771
-0.21920918 0.16651782 0.75296801
-0.19575343 0.15219915 0.75374466
-0.21202709 0.17257458 0.74562025
-0.15392083 0.21306789 0.7429716
-0.20311071 0.13584194 0.74879318
-0.15351331 0.15362066 0.71966666
-0.16110255 0.1059291 0.72891241
-0.16600777 0.15325248 0.7160852
-0.18118082 0.10387184 0.73736626
-0.17261143 0.19037496 0.75532711
-0.16501555 0.08848387 0.745305
-0.15719824 0.12973063 0.7254644
-0.15031072 0.17131932 0.72009641
-0.15909076 0.18923226 0.71882164
-0.20416369 0.17699684 0.75232232
-0.21665509 0.15528344 0.74518466
-0.21223317 0.1709498 0.75551677
-0.158696 0.12134977 0.72544944
-0.15906508 0.20906706 0.74598199
-0.16501562 0.20204234 0.72049713
-0.20367473 0.15068913 0.71899772
-0.1558672 0.21076234 0.74939603
-0.21930234 0.1601855 0.75644904
-0.1803077 0.12021623 0.74950683
-0.1817285 0.14311053 0.71646488
-0.17092009 0.20298153 0.7210772
-0.16807894 0.084713265 0.72849786
-0.15492484 0.13464889 0.73941302
-0.14015901 0.22392309 0.72769827
-0.19210701 0.15833342 0.75400496
-0.15740889 0.14538215 0.74991107
-0.14090057 0.20685187 0.75074953
-0.16781801 0.091028675 0.710504
-0.17738715 0.097857468 0.71841156
-0.20713678 0.17717351 0.73744839
-0.17077328 0.088901721 0.73904127
-0.17758353 0.098002128 0.71354526
-0.19058117 0.15469944 0.71827275
-0.17442779 0.19894323 0.74279642
-0.15941961 0.21194011 0.72517085
-0.16098002 0.099155024 0.74595082
-0.20851387 0.1430839 0.72932661
-0.14364338 0.20248117 0.73113304
-0.15496312 0.15308766 0.71514672
-0.16173527 0.096094027 0.74013835
-0.16295357 0.1982944 0.71997947
-0.21163008 0.14752097 0.7272383
-0.14113174 0.20887776 0.7448231
-0.1438213 0.1956412 0.74156016
-0.20505539 0.13785918 0.72110951
-0.1445349 0.21992756 0.74041563
-0.19485897 0.13955256 0.71723503
-0.1936473 0.1483756 0.71794647
-0.15317315 0.17403343 0.71692681
-0.21518274 0.15280642 0.73281789
-0.18070403 0.1031258 0.73532861
-0.16403057 0.20841029 0.72749436
-0.22022207 0.16005096 0.73186481
-0.20524663 0.17162506 0.72105795
-0.15894707 0.18404821 0.71833205
-0.16846092 0.19950749 0.72055167
-0.22218154 0.1626298 0.72313881
-0.15456457 0.16812278 0.75176829
-0.14948349 0.16948797 0.73163277
-0.16018862 0.16367863 0.75182903
-0.15918735 0.16351925 0.71646094
-0.18336205 0.10656795 0.72152764
-0.1629042 0.20761161 0.73801374
-0.21497416 0.15313013 0.75473845
-0.16127872 0.101617 0.73484653
-0.18377396 0.12940438 0.71537328
-0.19581288 0.12449342 0.72009492
-0.1386193 0.22002193 0.75005019
-0.14008836 0.22112806 0.75288314
-0.14037128 0.21773209 0.73662418
-0.20447239 0.17869341 0.73957491
-0.15059248 0.15942377 0.73850769
-0.16881672 0.19285606 0.75523847
-0.21627 0.15436286 0.73237908
-0.19971742 0.13062605 0.73758382
-0.22246541 0.16358539 0.74229866
-0.16188003 0.095181972 0.74566007
-0.1526953 0.14775436 0.73831171
-0.15511456 0.13942082 0.72900039
-0.18532172 0.18587703 0.75597525
-0.19039011 0.11675748 0.71476132
-0.19807796 0.1502187 0.75375652
-0.14635667 0.191558 0.72350353
-0.20101911 0.17857456 0.7562744
-0.17645361 0.19677207 0.74795735
-0.2005993 0.18067834 0.74416578
-0.19026527 0.11651076 0.72088242
-0.15418747 0.14587858 0.72674435
-0.20144592 0.13262369 0.72016048
-0.15487136 0.173471 0.75228673
-0.17081016 0.191503 0.72001046
-0.16324207 0.10875574 0.71175462
-0.15628713 0.21371092 0.72778004
-0.20945089 0.17134745 0.72138399
-0.18001583 0.19389239 0.75077242
-0.14606574 0.22003399 0.73265362
-0.1540581 0.13686834 0.74411529
-0.17180014 0.19173484 0.75538462
-0.1725543 0.15234128 0.75181842
-0.20838365 0.14308722 0.73603672
-0.17034236 0.20084041 0.7489509
-0.17753731 0.098431699 0.73095822
-0.15325436 0.20291722 0.75486434
-0.15788239 0.13371722 0.71360624
-0.15681082 0.1778207 0.75284964
-0.20176546 0.16746153 0.72038347
-0.20390688 0.17029168 0.75609314
-0.14195639 0.21129476 0.7322678
-0.15209644 0.21593069 0.73226601
-0.18753307 0.11395021 0.74953365
-0.22023751 0.16396086 0.75687498
-0.15047075 0.21358179 0.75543255
-0.17922167 0.10093607 0.73355025
-0.16383861 0.1463351 0.71526647
-0.2044725 0.14059125 0.71813428
-0.18387143 0.19004382 0.72096807
-0.16696866 0.16168083 0.75221175
-0.15762988 0.20883314 0.75415385
-0.15853405 0.1930469 0.75439644
-0.20056207 0.13172929 0.73353106
-0.20239371 0.16875751 0.75582522
-0.16793695 0.20569228 0.72764373
-0.21552934 0.1708921 0.7407195
-0.14677146 0.18371624 0.73335069
-0.16731423 0.20576464 0.73002923
-0.14736776 0.19973251 0.75407887
-0.14230189 0.20428912 0.75407529
-0.21678926 0.17135827 0.73180491
-0.15994816 0.18471292 0.71847695
-0.22109017 0.16555488 0.75073129
-0.17528301 0.18738808 0.75527537
-0.18457974 0.11540024 0.74942052
-0.21248515 0.1485448 0.71986902
-0.1975777 0.12749346 0.73600256
-0.18452227 0.10841219 0.72749346
-0.20351523 0.17681469 0.75652421
-0.15109512 0.16203877 0.72881669
-0.15751602 0.12945168 0.74845237
-0.20406589 0.13636863 0.71890867
-0.17915942 0.13206138 0.75050223
-0.18892634 0.19138621 0.72645742
-0.19024527 0.16961515 0.75488865
-0.16162263 0.097243153 0.73921412
-0.15828061 0.12652634 0.72036338
-0.16001597 0.15271929 0.71553516
-0.17448959 0.093872778 0.72530562
-0.18027519 0.10209951 0.72103047
-0.21874212 0.15829951 0.74534065
-0.14312129 0.1975252 0.74519521
-0.16404599 0.084021546 0.738585
-0.16536711 0.13056664 0.71394163
-0.15573797 0.14520758 0.74975544
-0.16043033 0.19406466 0.7546488
-0.15372887 0.15094532 0.72228581
-0.17997706 0.10240417 0.74681503
-0.16399971 0.082134478 0.74241489
-0.20278487 0.15876831 0.75493753
-0.18236469 0.19503318 0.73233789
-0.17083938 0.16872704 0.71791464
-0.15383744 0.15023589 0.72246689
-0.19117208 0.18746895 0.74226075
-0.2170779 0.16605411 0.75680375
-0.16511999 0.18600537 0.75429839
-0.1585608 0.12770343 0.71546245
-0.14855529 0.17171362 0.73693836
-0.16387545 0.1793896 0.71831501
-0.1680038 0.16574591 0.71740288
-0.17231262 0.090425961 0.71458644
-0.15648495 0.1865402 0.71835583
-0.15642621 0.13955998 0.71564192
-0.1773304 0.17322919 0.71887207
-0.17995837 0.10161816 0.72018242
-0.17851442 0.11172882 0.71330523
-0.16072693 0.10332658 0.73731107
-0.16634731 0.082232572 0.72912604
-0.16302735 0.098421924 0.72306871
-0.17062594 0.13162613 0.74974877
-0.16524713 0.20632277 0.73582435
-0.20101348 0.14707489 0.71844238
-0.19474381 0.14062838 0.71732432
-0.15631738 0.13866736 0.71832156
-0.18372853 0.10740633 0.732391
-0.21649493 0.16864465 0.75127327
-0.19993216 0.17627573 0.72104216
-0.18260051 0.18943207 0.75607538
-0.14058502 0.22469041 0.72207105
-0.1810073 0.12686582 0.75017792
-0.15567587 0.13282537 0.73516017
-0.20269482 0.13465045 0.72804153
-0.17189854 0.15537956 0.75204349
-0.17539474 0.14752974 0.75161242
-0.16358674 0.16226885 0.71671343
-0.18437289 0.11094564 0.71372277
-0.16313435 0.098274387 0.72226208
-0.19593406 0.16131176 0.7193293
-0.17623274 0.096850798 0.7415393
-0.14681792 0.19166461 0.71870285
-0.17711791 0.16136359 0.7177611
-0.15546669 0.20755933 0.75547701
-0.14794789 0.17557922 0.73611253
-0.14604318 0.18897852 0.73124015
-0.17318189 0.19972026 0.7433483
-0.16520612 0.20842861 0.7211014
-0.16115662 0.10419383 0.73146868
-0.18373427 0.11056296 0.74890417
-0.15234174 0.16138852 0.71751559
-0.16547662 0.090901129 0.71200776
-0.1979388 0.18004116 0.72122252
-0.20400043 0.13636781 0.7221939
-0.20307775 0.13495126 0.71920788
-0.22000861 0.15998746 0.74044389
-0.1790328 0.15999782 0.75306535
-0.15818758 0.18526681 0.71838087
-0.1467834 0.22069287 0.72495031
-0.17001463 0.20424189 0.72775537
-0.18908279 0.18576358 0.72100937
-0.15972735 0.10501961 0.74428165
-0.19433045 0.13812396 0.71705908
-0.18150005 0.15650471 0.71767992
-0.15862387 0.18963842 0.71882004
-0.18449077 0.12931752 0.71542519
-0.17777751 0.109209 0.74828142
-0.1814891 0.12545423 0.7148183
-0.20066926 0.13170376 0.72720498
-0.15366176 0.21404858 0.73761892
-0.17082316 0.1782766 0.71879321
-0.14152728 0.20181316 0.75378239
-0.16338395 0.13514604 0.71419781
-0.17142625 0.16857295 0.75321943
-0.21346885 0.17001165 0.7560876
-0.14567649 0.19724169 0.72016084
-0.18438479 0.13538797 0.71597558
-0.17052762 0.11464474 0.74817604
-0.22051017 0.16574386 0.75214165
-0.16841358 0.15183441 0.71615553
-0.20480247 0.14668871 0.7187236
-0.20420119 0.13666873 0.72258586
-0.16379045 0.11533497 0.74767643
-0.20262061 0.13430642 0.71972907
-0.21098705 0.14725311 0.7503944
-0.1634822 0.0850605 0.74236572
-0.17249781 0.14398451 0.71577388
-0.16336454 0.15558411 0.716079
-0.18001263 0.10196925 0.72975415
-0.1681567 0.17318244 0.75337088
-0.21148631 0.14796987 0.7502678
-0.20645957 0.17802157 0.73490685
-0.21079122 0.14608224 0.71922857
-0.15636398 0.2131947 0.72080129
-0.15996049 0.19770509 0.75494486
-0.17032787 0.11504202 0.74819595
-0.15126351 0.17313907 0.75195467
-0.1480355 0.17661327 0.73339134
-0.18669623 0.14328752 0.71689659
-0.17440674 0.19853957 0.74558753
-0.15775391 0.12871946 0.72171462
-0.16641442 0.20455514 0.7422471
-0.16245502 0.099624954 0.72664267
-0.16854709 0.14764357 0.75105059
-0.15719441 0.13486837 0.71633452
-0.22382204 0.16515884 0.7288186
-0.19744976 0.12768184 0.74909216
-0.1633288 0.10166156 0.71427476
-0.20283049 0.13495371 0.73181331
-0.15832445 0.15174042 0.75057346
-0.15592043 0.13930567 0.72115129
-0.16762362 0.19533315 0.72009706
-0.21180803 0.14777122 0.72700912
-0.18666984 0.18190484 0.72045213
-0.21053109 0.17017727 0.72136647
-0.18259232 0.19533528 0.72927254
-0.17947438 0.1233663 0.74972743
-0.16196121 0.18506774 0.75394791
-0.14595129 0.21059382 0.75496119
-0.17695107 0.18304488 0.75501472
-0.16411389 0.1909778 0.75467235
-0.19862328 0.18511295 0.72366607
-0.19811663 0.15470989 0.7189036
-0.2086115 0.14306772 0.72381628
-0.18395017 0.1425644 0.71660048
-0.18305098 0.1885545 0.72076219
-0.15221682 0.21461527 0.74049163
-0.17315628 0.20095585 0.73521912
-0.19656202 0.16998085 0.72018063
-0.17158213 0.1555935 0.71676677
-0.17918153 0.17469801 0.71916223
-0.18955404 0.14429706 0.71722853
-0.14316072 0.20721844 0.72750258
-0.17325334 0.11480487 0.74841875
-0.17530075 0.13734308 0.75066626
-0.1653105 0.10365263 0.71145737
-0.16154915 0.19143391 0.75450003
-0.20069306 0.13171555 0.72641492
-0.20898576 0.14440589 0.75182033
-0.17083719 0.13150232 0.71448511
-0.18267812 0.19131486 0.75571442
-0.174069 0.1103593 0.71280736
-0.16326974 0.099139765 0.719365
-0.21757486 0.15875944 0.72090346
-0.14130782 0.21037856 0.74038625
-0.20254749 0.1790217 0.74624979
-0.17368692 0.093144156 0.74037898
-0.1754667 0.20012724 0.73010749
-0.20886575 0.14410597 0.74737346
-0.20125225 0.13310947 0.74701142
-0.14201924 0.21021147 0.73357254
-0.14479333 0.22106588 0.73162729
-0.20020571 0.13172488 0.75141668
-0.16186458 0.19154903 0.75453693
-0.1474767 0.1798407 0.73321742
-0.1957967 0.18017425 0.72105563
-0.17094453 0.17969781 0.71893418
-0.16765667 0.16479157 0.71728617
-0.15443826 0.17430229 0.71705735
-0.20846796 0.16581595 0.75606197
-0.17321213 0.16085143 0.7173875
-0.1710301 0.18315955 0.75453019
-0.14106549 0.2168396 0.73127747
-0.16609241 0.19953059 0.72035575
-0.20090677 0.13212252 0.72987145
-0.21850818 0.1671125 0.75222695
-0.17743653 0.19044317 0.72046679
-0.14208753 0.20821568 0.73645109
-0.20172854 0.14546558 0.75362378
-0.20265527 0.16667177 0.72038513
-0.19528043 0.1753761 0.7205705
-0.15486604 0.14826491 0.71570289
-0.19545151 0.12467489 0.74475914
-0.15435 0.13354342 0.74713123
-0.20058265 0.13188216 0.73784941
-0.16020289 0.12416068 0.74818963
-0.17424475 0.16726995 0.75333506
-0.20542957 0.13930519 0.75290239
-0.17033613 0.18157458 0.75432622
-0.15878876 0.20928398 0.74580687
-0.15114512 0.18915685 0.75342035
-0.18353347 0.10720564 0.73522067
-0.14455245 0.19042182 0.74356532
-0.18794651 0.14871688 0.7527712
-0.19244087 0.11980715 0.72639143
-0.15063871 0.20299092 0.75465262
-0.17476222 0.14309156 0.75115073
-0.16650191 0.20637901 0.72102088
-0.14383489 0.18992703 0.75162143
-0.20390952 0.16326356 0.75544572
-0.21218149 0.17185649 0.74970257
-0.14753847 0.17773369 0.73636013
-0.19715045 0.18487999 0.7320056
-0.15211406 0.15295076 0.73484844
-0.14352445 0.19324195 0.74880916
-0.20652188 0.1612501 0.72020882
-0.16162416 0.15206687 0.75087935
-0.17284656 0.12586029 0.7141332
-0.16145758 0.10625532 0.72478151
-0.16148219 0.0998514 0.73596293
-0.20290545 0.1596325 0.75502741
-0.15981235 0.2078853 0.75042814
-0.17691821 0.13537391 0.75062007
-0.16189507 0.17460382 0.75297832
-0.16115703 0.20732327 0.74798632
-0.14672144 0.19192395 0.7192046
-0.16357408 0.084368594 0.7426818
-0.19439186 0.1735224 0.75559545
-0.21621448 0.17094816 0.73718977
-0.17125739 0.15823998 0.75225335
-0.16615094 0.1390633 0.7500599
-0.15928459 0.20499764 0.75556016
-0.16948755 0.10887124 0.71228737
-0.15681316 0.18953308 0.75392884
-0.15309905 0.1446811 0.73976141
-0.20563576 0.15009719 0.71910721
-0.1668116 0.17135344 0.71781999
-0.1642839 0.12760352 0.74884778
-0.16648278 0.16686153 0.71737874
-0.1654591 0.18131249 0.71862435
-0.14570527 0.18615763 0.7396518
-0.14409183 0.18838868 0.75179803
-0.16748336 0.093787752 0.74599999
-0.17247918 0.1526819 0.71657342
-0.17840531 0.10200685 0.74767029
-0.18138763 0.14959456 0.71703386
-0.1985317 0.12898514 0.74004096
-0.17689642 0.16091166 0.71770102
-0.18971626 0.15981483 0.7539416
-0.18653996 0.17793478 0.75534546
-0.15108193 0.15332209 0.7445029
-0.169236 0.19613576 0.72030586
-0.1799769 0.10142769 0.71256167
-0.18545195 0.10999381 0.73592007
-0.18157205 0.14378409 0.71651399
-0.21038866 0.14561139 0.72308767
-0.17612483 0.10601361 0.74784881
-0.16010889 0.11363478 0.72509378
-0.14877769 0.17879555 0.72207868
-0.188878 0.19095084 0.72958636
-0.15285756 0.18675974 0.75334257
-0.16221902 0.1158519 0.71232277
-0.20411286 0.13703653 0.73996586
-0.14726137 0.18310103 0.72955215
-0.13886456 0.21761577 0.7518931
-0.17326677 0.099307247 0.71172214
-0.15768726 0.12160149 0.73508322
-0.22313328 0.16487649 0.74584925
-0.14218523 0.22129926 0.7420823
-0.14859815 0.17290707 0.7343815
-0.14581093 0.20199177 0.71888709
-0.14562437 0.21726009 0.75320226
-0.21162796 0.1474662 0.72542191
-0.15503171 0.18698394 0.75354505
-0.18970861 0.17402142 0.75524986
-0.13945736 0.21665294 0.74768543
-0.16312066 0.094707198 0.7287662
-0.14002894 0.21423145 0.7462936
-0.17113407 0.088783965 0.7166419
-0.19682784 0.12667115 0.7451157
-0.17318283 0.179001 0.71905714
-0.17669167 0.18352771 0.71976745
-0.18335573 0.19154541 0.75105339
-0.14916112 0.17583156 0.7235353
-0.19391648 0.12193927 0.72648937
-0.20595419 0.13929082 0.72583669
-0.20127702 0.17240177 0.75606757
-0.1791494 0.1264022 0.71471012
-0.16588187 0.20637958 0.73252219
-0.14313757 0.19657806 0.74672264
-0.21740539 0.17220177 0.72212762
-0.18624476 0.18932462 0.75256985
-0.18285944 0.1061566 0.73254204
-0.16019 0.10443366 0.74070227
-0.17812949 0.14514141 0.75162113
-0.16893274 0.17545637 0.75364524
-0.160532 0.16971488 0.75241399
-0.15117136 0.16809364 0.71724933
-0.14510572 0.21893156 0.72038859
-0.14255175 0.19653286 0.75265914
-0.16103739 0.1135882 0.71589613
-0.17511965 0.10732411 0.71261555
-0.14257188 0.20175689 0.74313438
-0.20000729 0.13079804 0.72893995
-0.16064811 0.11202026 0.7225849
-0.16217645 0.20017663 0.72008789
-0.161506 0.134572 0.74925774
-0.17395444 0.092730232 0.71230596
-0.16584714 0.16615714 0.71726048
-0.15877406 0.21196501 0.72797859
-0.15898906 0.17393011 0.75267327
-0.19556102 0.18728456 0.72327662
-0.21075137 0.17643151 0.72196102
-0.15250106 0.19136979 0.71846771
-0.15339667 0.2152171 0.73104024
-0.18863557 0.16162501 0.75401801
-0.14811413 0.18179843 0.72335225
-0.14459828 0.19094697 0.7421698
-0.21484797 0.16460733 0.75648421
-0.15367739 0.21585345 0.72549951
-0.16929065 0.20138057 0.75018871
-0.15007105 0.20172724 0.75448865
-0.15957741 0.12211122 0.71527934
-0.14049706 0.21328786 0.74329805
-0.20014231 0.13882764 0.75287968
-0.22110517 0.16579425 0.74906451
-0.18666047 0.11127543 0.71970129
-0.19606586 0.14899327 0.71820551
-0.17255251 0.091173045 0.72865272
-0.16002756 0.21005812 0.73493284
-0.21570529 0.17065592 0.7414853
-0.15882075 0.12229455 0.72251636
-0.15882733 0.11904494 0.72824943
-0.18203421 0.11414324 0.7490918
-0.21088274 0.14659958 0.73274601
-0.22195441 0.16249292 0.72983634
-0.21045429 0.1723437 0.75440627
-0.16895036 0.086405776 0.74376094
-0.19257291 0.16142239 0.71905857
-0.14484119 0.19375835 0.73472553
-0.15228777 0.14625196 0.74506664
-0.17579165 0.095986605 0.73354864
-0.20172121 0.13346674 0.73580474
-0.21872123 0.15805838 0.7379396
-0.20983174 0.14540409 0.74401242
-0.16815563 0.13128538 0.71424085
-0.1887143 0.1885428 0.74641454
-0.21838318 0.15806577 0.75531626
-0.14544593 0.18349436 0.74699658
-0.16121346 0.10803646 0.72404337
-0.20381285 0.14188424 0.71819812
-0.18062234 0.10271624 0.72509277
-0.19109146 0.17200914 0.75518006
-0.15964918 0.21009855 0.73640633
-0.16098462 0.10216419 0.73680955
-0.20741583 0.16200176 0.72035283
-0.14862972 0.1756864 0.72910553
-0.15967499 0.11575588 0.7256459
-0.21407817 0.15168869 0.74952418
-0.18387385 0.12089782 0.714598
-0.15889058 0.18879214 0.7540344
-0.16388047 0.088842332 0.73163629
-0.22204643 0.16264929 0.73066729
-0.19243081 0.14119099 0.71718287
-0.1706908 0.089842655 0.74590468
-0.14576285 0.18425818 0.74246609
-0.14739937 0.21917784 0.73222518
-0.21384332 0.17463651 0.72205406
-0.22130106 0.16455057 0.75646353
-0.14028235 0.20987563 0.75153375
-0.16264614 0.20626654 0.74818009
-0.18549575 0.12608044 0.75048089
-0.1648141 0.18288895 0.75398564
-0.16311111 0.20512289 0.7536729
-0.15938912 0.11141738 0.73624551
-0.19248664 0.12497598 0.75096351
-0.16929507 0.17717545 0.75383389
-0.16552255 0.2082313 0.72181702
-0.20153056 0.13991597 0.75309604
-0.22114323 0.1683954 0.72208929
-0.14848302 0.21775739 0.73671532
-0.15862769 0.11360043 0.73996115
-0.19713075 0.15343979 0.75397408
-0.21333367 0.15029663 0.73837346
-0.15477984 0.13686612 0.73690552
-0.16623954 0.20535305 0.73772645
-0.21543132 0.17214996 0.72195792
-0.18393371 0.15102988 0.71737891
-0.16515943 0.12752962 0.71364439
-0.19596608 0.18389446 0.74403876
-0.15392207 0.15989907 0.75095701
-0.19994274 0.18085691 0.74599767
-0.1792011 0.13179034 0.71521086
-0.1579515 0.12000124 0.73529714
-0.17971575 0.10161576 0.73238516
-0.22224654 0.16879214 0.72379631
-0.1810261 0.17921636 0.7550025
-0.1885646 0.11427565 0.72856313
-0.17616913 0.09632726 0.72639054
-0.14848541 0.21182379 0.72001642
-0.15551245 0.13169558 0.74849176
-0.14858209 0.17490274 0.73098046
-0.16524656 0.092649214 0.71118742
-0.18224686 0.10476519 0.71473783
-0.16189699 0.095299013 0.73994023
-0.14531703 0.1820444 0.75087321
-0.14615284 0.2109123 0.75500721
-0.1739302 0.17530563 0.75404912
-0.20046294 0.1833021 0.72727954
-0.17020035 0.17912312 0.75408888
-0.16129327 0.17989317 0.71814531
-0.20456083 0.13913232 0.75327706
-0.15367684 0.14882219 0.7265951
-0.15134618 0.21572968 0.73706275
-0.15627602 0.21302861 0.73238569
-0.17134428 0.13441259 0.71479553
-0.17901275 0.13054274 0.71508008
-0.14864282 0.177561 0.72562945
-0.17688118 0.098015532 0.74717522
-0.1898545 0.1887296 0.73991573
-0.17378947 0.18493591 0.75492448
-0.20527846 0.1383417 0.72674358
-0.18398768 0.19284569 0.73946333
-0.19666982 0.18549463 0.73011744
-0.14246103 0.21282631 0.7244904
-0.20291254 0.13468435 0.71820879
-0.1578417 0.2122339 0.7304787
-0.14855565 0.18012081 0.72193229
-0.19848685 0.15903309 0.75460273
-0.18547973 0.16923825 0.75445569
-0.17026363 0.1018368 0.71170402
-0.15623453 0.13772565 0.74910754
-0.18588656 0.11011826 0.7182793
-0.15329504 0.21251172 0.7495662
-0.16041696 0.19462739 0.75469947
-0.19861528 0.18132795 0.74896836
-0.18084569 0.13201702 0.71536922
-0.18599503 0.12383277 0.71504569
-0.14793426 0.17133816 0.74381644
-0.19069454 0.14982378 0.75310284
-0.19695386 0.12608983 0.71833712
-0.2246332 0.16619334 0.72404742
-0.16721269 0.17698447 0.75364202
-0.20167592 0.13302058 0.72243965
-0.16622761 0.082354441 0.73946482
-0.17333174 0.176479 0.7188372
-0.19039115 0.16743463 0.71943009
-0.20113176 0.13546862 0.752653
-0.21844131 0.16872005 0.7418049
-0.2170627 0.16204728 0.75643331
-0.15073697 0.20231324 0.75459832
-0.19070862 0.11784244 0.74516088
-0.15102999 0.19686665 0.71885103
-0.2014844 0.13326235 0.74062496
-0.17901912 0.10553622 0.71277678
-0.15511227 0.12882465 0.74793267
-0.16670661 0.10561837 0.74702495
-0.19350161 0.13085499 0.75159001
-0.17600021 0.20007521 0.72123414
-0.17211279 0.20142178 0.73691541
-0.20409064 0.13641711 0.71935725
-0.16479096 0.1882121 0.75447422
-0.14440405 0.21970496 0.742504
-0.14948902 0.21438496 0.75459307
-0.15321532 0.14457896 0.73878002
-0.19345778 0.12099551 0.71660089
-0.18970805 0.18959004 0.73484671
-0.21495825 0.15279847 0.7439031
-0.16639489 0.10688117 0.74711519
-0.1892616 0.15629563 0.75357944
-0.15769956 0.13287054 0.71485132
-0.18660276 0.18920891 0.75169331
-0.21345936 0.1681588 0.72142529
-0.2202926 0.16666986 0.74696285
-0.14388351 0.19505389 0.7419861
-0.17151369 0.20180617 0.73710835
-0.15078084 0.16185065 0.73229307
-0.15637167 0.21461338 0.7209326
-0.21608713 0.15405121 0.73070413
-0.14732133 0.18767178 0.72079563
-0.20797241 0.14232419 0.73008597
-0.19961675 0.16827883 0.75554889
-0.14841737 0.17410935 0.75180608
-0.16002943 0.11787643 0.71831805
-0.16250485 0.16006516 0.71641994
-0.1658223 0.11248839 0.74758404
-0.14140464 0.22428249 0.72576493
-0.20236461 0.18202381 0.72705352
-0.1514283 0.15752549 0.73354012
-0.17185703 0.14122877 0.71546644
-0.19272405 0.13746342 0.71686393
-0.15946789 0.10541112 0.74617565
-0.17246483 0.14903821 0.75150657
-0.15373857 0.14986122 0.7241233
-0.16094117 0.10578971 0.74655879
