# .PCD v0.7 - Point Cloud Data file format
VERSION 0.7
FIELDS x y z
SIZE 4 4 4
TYPE F F F
COUNT 1 1 1
WIDTH 1415
HEIGHT 1
VIEWPOINT 0 0 0 1 0 0 0
POINTS 1415
DATA ascii
-0.20990895 0.15084815 0.75786406
-0.17914596 0.18498436 0.75607824
-0.17559858 0.089044228 0.72880763
-0.14661354 0.172344 0.74764085
-0.19958496 0.13960725 0.72047186
-0.19835806 0.16797401 0.75746614
-0.16488269 0.075935632 0.74007982
-0.14483032 0.19036198 0.73736769
-0.18490981 0.13464917 0.75363195
-0.20861411 0.13851635 0.72156119
-0.16752215 0.079185933 0.74287492
-0.17841992 0.12905279 0.75244516
-0.15126218 0.1967342 0.71788865
-0.1940503 0.1581663 0.75629282
-0.19098739 0.11174109 0.73457551
-0.15587907 0.19711652 0.7185052
-0.16371039 0.095772445 0.72310358
-0.20752725 0.13747385 0.75191426
-0.20047978 0.17501409 0.75191671
-0.16711153 0.078414753 0.74134314
-0.16392322 0.15349171 0.71677595
-0.19751449 0.18133971 0.72357935
-0.16443907 0.080886148 0.74760324
-0.15712725 0.13965125 0.71502835
-0.2126814 0.14855807 0.75807476
-0.15983883 0.12417258 0.71451098
-0.20796198 0.1579625 0.72270823
-0.20122449 0.12594263 0.7309444
-0.1931296 0.1168787 0.75184417
-0.16565686 0.081358016 0.72759718
-0.17738929 0.091835193 0.73072648
-0.1670505 0.078261584 0.7407946
-0.14077029 0.21339068 0.73699754
-0.20426564 0.14936233 0.75704616
-0.14845651 0.17954008 0.72523159
-0.19744185 0.11918683 0.71973097
-0.14718935 0.18131953 0.73203421
-0.16240223 0.1224879 0.71461856
-0.14650927 0.18082252 0.73754257
-0.17513686 0.14939569 0.75331157
-0.16378996 0.12555321 0.71499062
-0.1726585 0.17944084 0.71953893
-0.15856448 0.13048817 0.71556205
-0.19589657 0.12939475 0.71935236
-0.15463014 0.13620722 0.74984616
-0.21051659 0.13975921 0.73535699
-0.17720151 0.19491693 0.7260285
-0.15990514 0.2036119 0.74704689
-0.1494375 0.15604696 0.74825603
-0.14335302 0.20539145 0.72872603
-0.15103719 0.14784585 0.74728656
-0.17137763 0.10821407 0.7148667
-0.21952751 0.16423759 0.73670524
-0.17674717 0.17175516 0.75493324
-0.14804856 0.17328781 0.75134891
-0.17610168 0.16705127 0.71919632
-0.20111308 0.1260362 0.73304969
-0.16949113 0.079404145 0.72125548
-0.15447044 0.14973384 0.72027421
-0.15466748 0.14695056 0.72242242
-0.15016094 0.21381707 0.71882862
-0.14611989 0.18409748 0.73614228
-0.16573977 0.20355855 0.72093159
-0.16366583 0.17769077 0.75363082
-0.15256055 0.15904582 0.72204572
-0.18091521 0.09683951 0.73041618
-0.19897695 0.12440024 0.74485755
-0.16207774 0.10762493 0.71963817
-0.16874224 0.14062674 0.7519362
-0.22507611 0.16102372 0.73276734
-0.15920629 0.11897317 0.72569352
-0.18387811 0.11310537 0.71677965
-0.19547111 0.16775903 0.75708216
-0.16705768 0.08272209 0.7158156
-0.18005084 0.19028276 0.74371803
-0.20190212 0.1259979 0.72333884
-0.16694875 0.077298552 0.73398954
-0.19116411 0.13230771 0.75428587
-0.18121408 0.1099052 0.75159174
-0.20974815 0.14338022 0.75737077
-0.16207479 0.086196885 0.74707037
-0.19300723 0.11438342 0.73252898
-0.15662232 0.1559035 0.75134844
-0.16630775 0.082598053 0.72134739
-0.15180348 0.18222567 0.75239605
-0.22220771 0.16031493 0.75046122
-0.16451283 0.088620782 0.72650284
-0.18637036 0.14492348 0.71911317
-0.17522138 0.14412306 0.71763229
-0.20333019 0.15080935 0.72166127
-0.14215967 0.20628402 0.75268179
-0.20916283 0.1389723 0.74492031
-0.19610713 0.14452145 0.75569308
-0.14140186 0.20817095 0.73914927
-0.14096272 0.21148504 0.75285745
-0.19886203 0.12251107 0.73049909
-0.16661428 0.13541318 0.71597689
-0.15649171 0.20851576 0.73013389
-0.19594209 0.13559985 0.75510734
-0.16406497 0.14989664 0.75192314
-0.16802715 0.084786966 0.74831039
-0.17074639 0.13185465 0.75163835
-0.18298846 0.10016378 0.7334106
-0.17654216 0.091556266 0.73848772
-0.20807141 0.13679524 0.73978788
-0.14423358 0.18548612 0.7516315
-0.14907743 0.1937674 0.75277698
-0.15520802 0.13115305 0.7387585
-0.20800619 0.14237708 0.72172749
-0.16323559 0.18145648 0.75381404
-0.1574073 0.11737816 0.74062288
-0.18405086 0.17518097 0.72073066
-0.1744964 0.089045718 0.74193931
-0.14623789 0.19376275 0.72293282
-0.20437741 0.13273671 0.7499724
-0.17177176 0.17340322 0.75439942
-0.15748994 0.12514819 0.73009121
-0.16334958 0.11060265 0.71398801
-0.16369292 0.13956803 0.71586514
-0.16680005 0.082683809 0.71771073
-0.16492625 0.15113139 0.71675515
-0.1672513 0.17561509 0.75395942
-0.18941866 0.13964871 0.75452679
-0.21086974 0.17165256 0.7269941
-0.17604721 0.090361528 0.73443347
-0.20321202 0.17219602 0.75813991
-0.22159432 0.15984918 0.7563206
-0.19044365 0.13338165 0.75426161
-0.15936969 0.11543385 0.72905046
-0.14417948 0.20720813 0.72048086
-0.14433607 0.20799135 0.71835703
-0.1949946 0.11766246 0.73616982
-0.17442732 0.08955244 0.71407664
-0.19510739 0.14240921 0.72007483
-0.15157944 0.17573158 0.7166
-0.16558942 0.15295817 0.75231218
-0.16100276 0.10703231 0.72809803
-0.17278565 0.10571704 0.75024557
-0.19983938 0.16190231 0.72191554
-0.15752941 0.1171997 0.73997629
-0.15529281 0.1451997 0.72018236
-0.19933346 0.15387557 0.72134268
-0.16377451 0.17253757 0.75331873
-0.16217187 0.13407381 0.7506786
-0.15532771 0.14225432 0.72370034
-0.14734678 0.18738069 0.72315222
-0.19109005 0.11402567 0.75237054
-0.19391108 0.16523226 0.75672221
-0.16092771 0.17185992 0.71755433
-0.14753747 0.21263172 0.74356133
-0.18241505 0.10112958 0.74827582
-0.17509936 0.089886442 0.74176073
-0.16303796 0.1300986 0.71518189
-0.15599406 0.209859 0.72351789
-0.21362317 0.14623448 0.75228226
-0.21697505 0.14804195 0.72743213
-0.20810141 0.13565923 0.72997475
-0.16967927 0.12572913 0.75111365
-0.19302647 0.18386161 0.7272774
-0.1913867 0.1348903 0.71912175
-0.14476307 0.21306992 0.75325215
-0.14399642 0.20974773 0.71854413
-0.18383178 0.14728047 0.75429296
-0.18012963 0.11284201 0.75163859
-0.15896983 0.12167732 0.72392857
-0.20510274 0.13627526 0.75632519
-0.21657562 0.15027624 0.75078517
-0.14897114 0.17257819 0.75142229
-0.1958414 0.15761352 0.75648767
-0.15445583 0.14065245 0.731996
-0.16577844 0.13931371 0.71611655
-0.17306629 0.18324713 0.75518847
-0.17680925 0.12060032 0.71634716
-0.15236585 0.20190121 0.75371373
-0.15545335 0.13791876 0.72834617
-0.1559213 0.19525951 0.71839303
-0.17383376 0.18598782 0.72010398
-0.16072699 0.11612204 0.74935704
-0.16497029 0.14986576 0.71668088
-0.16783787 0.19911639 0.74076033
-0.16497837 0.089241542 0.72237259
-0.14154467 0.2024533 0.7454403
-0.15568811 0.1381221 0.72640431
-0.17869598 0.093937121 0.71490175
-0.16362986 0.20023915 0.75243163
-0.16677029 0.087876283 0.71298832
-0.1564993 0.11759145 0.74890774
-0.16384369 0.088926889 0.73090488
-0.16253994 0.20542236 0.7231344
-0.15817048 0.1429712 0.75072849
-0.16262496 0.10060293 0.72470045
-0.1711629 0.17309919 0.75430202
-0.16709042 0.14980702 0.75230545
-0.16260408 0.12841071 0.75037575
-0.15984721 0.12118806 0.71826875
-0.20175008 0.16129865 0.75747895
-0.15465128 0.18610625 0.75300705
-0.15773849 0.12225118 0.73201668
-0.17076252 0.11514194 0.71522605
-0.18894328 0.1834054 0.74881268
-0.22123568 0.15481423 0.72421169
-0.20192304 0.12582217 0.72162694
-0.20876355 0.14671959 0.75745595
-0.18815371 0.16494727 0.72060931
-0.16109449 0.10530193 0.72965407
-0.2191111 0.16564935 0.72926778
-0.16134816 0.20348734 0.74132365
-0.14566885 0.19519718 0.72517484
-0.17984486 0.19244066 0.73039639
-0.15985459 0.15805404 0.71654278
-0.17556302 0.14566718 0.71777385
-0.14087573 0.21044302 0.74001271
-0.16123866 0.20673978 0.72033387
-0.17570683 0.16525446 0.75438851
-0.17480987 0.089211866 0.73959047
-0.15211461 0.16569781 0.71673054
-0.21842803 0.15350564 0.75561947
-0.16063701 0.10281184 0.73611742
-0.19318467 0.15009139 0.75567073
-0.14745988 0.18178056 0.72950619
-0.17670824 0.12977451 0.71691495
-0.19902702 0.16241191 0.75720006
-0.17202288 0.14235629 0.7524665
-0.18155193 0.18801811 0.75186974
-0.17135473 0.1149115 0.75064385
-0.19969457 0.17712922 0.72286063
-0.1641265 0.13740657 0.71578395
-0.1641136 0.079716593 0.74075311
-0.18949705 0.13882479 0.75448471
-0.15572651 0.14513515 0.75055194
-0.19935168 0.14337796 0.72068059
-0.14086135 0.20796029 0.75262135
-0.20732297 0.15529005 0.72245705
-0.17436789 0.18447679 0.75543332
-0.2104957 0.16867666 0.7483502
-0.15549906 0.13158165 0.73612529
-0.15944675 0.20598897 0.73342246
-0.18261473 0.1445225 0.75396246
-0.16633976 0.089762345 0.71305233
-0.18263687 0.10151965 0.74888247
-0.21281441 0.15944077 0.72342426
-0.15980361 0.19665018 0.75433534
-0.19749154 0.13673402 0.75537789
-0.15452576 0.19656321 0.71829647
-0.15314083 0.1536094 0.72484261
-0.17672898 0.19448541 0.73102242
-0.14816399 0.20700793 0.71814132
-0.14491096 0.19458164 0.73139209
-0.16353337 0.078336574 0.74667573
-0.16394094 0.13520232 0.71562064
-0.18437546 0.1904697 0.72286522
-0.18408877 0.16791657 0.72027576
-0.16884276 0.13057533 0.71595669
-0.18123339 0.12827504 0.75275683
-0.15136158 0.16265447 0.75110084
-0.17047374 0.085774362 0.71333039
-0.17435431 0.12000236 0.7159946
-0.17670128 0.18121855 0.72017002
-0.21085681 0.16357677 0.75879127
-0.18492037 0.14928469 0.71920323
-0.17187402 0.19890107 0.72387516
-0.174078 0.08612942 0.72264308
-0.16093041 0.20412813 0.73898566
-0.15361847 0.13528787 0.74485737
-0.17208181 0.18203948 0.75498575
-0.21204834 0.16877568 0.74065256
-0.16516076 0.082745545 0.72937626
-0.17057759 0.18182158 0.75477892
-0.1863018 0.10431156 0.7285006
-0.15169956 0.16170932 0.72480679
-0.16173519 0.092561707 0.74799538
-0.16140112 0.10024795 0.74843895
-0.19946288 0.12533516 0.74685538
-0.16181949 0.2063359 0.72036779
-0.19175217 0.11302409 0.71778464
-0.17534964 0.19494703 0.73423034
-0.15045443 0.21099545 0.74113953
-0.17725107 0.093370996 0.74515665
-0.22210839 0.15619549 0.73420417
-0.15485892 0.1323626 0.73971224
-0.15253612 0.20285212 0.71843928
-0.18750407 0.17331052 0.75641161
-0.21398684 0.15167436 0.72308314
-0.15710503 0.20812269 0.72994947
-0.17561856 0.19562846 0.72850871
-0.19685012 0.12057383 0.73831922
-0.16951378 0.10301936 0.74965495
-0.17571321 0.094294332 0.7498982
-0.22106512 0.15613334 0.74610436
-0.20501795 0.1530886 0.7573784
-0.19129959 0.11617906 0.71792626
-0.22228758 0.15849678 0.75122845
-0.15018082 0.1564219 0.74245143
-0.18098728 0.11445634 0.75185072
-0.16665849 0.084846102 0.71595877
-0.18868142 0.12553547 0.75353897
-0.18715708 0.14715151 0.71935517
-0.16781403 0.1264029 0.71556062
-0.17358884 0.19530238 0.72066206
-0.16270414 0.13655373 0.71554756
-0.20201719 0.12766096 0.73581356
-0.16482563 0.20279735 0.73010725
-0.15583096 0.12156668 0.74655825
-0.20258769 0.17013319 0.72278917
-0.13832851 0.2152653 0.75275874
-0.19477825 0.1235962 0.75419825
-0.16196091 0.095373988 0.73614687
-0.16491739 0.090437092 0.72128075
-0.21882999 0.16112721 0.75965905
-0.16845164 0.19804408 0.74506116
-0.16358353 0.090873733 0.73027867
-0.14802761 0.16479664 0.75080878
-0.19646135 0.18193229 0.72444165
-0.16760546 0.19499844 0.71987528
-0.17421855 0.092695072 0.74960512
-0.19492602 0.16135541 0.75660712
-0.18088526 0.1527724 0.71890622
-0.21820539 0.15611298 0.72390509
-0.19117329 0.18226643 0.7462225
-0.16232637 0.13399197 0.71533692
-0.18132353 0.12513137 0.7525695
-0.16048792 0.17485699 0.71768749
-0.18536299 0.17281577 0.7207492
-0.14954013 0.16924892 0.73063272
-0.15180941 0.14978939 0.73926765
-0.17657106 0.089838997 0.72384864
-0.15405972 0.18705335 0.71763474
-0.15578073 0.12768288 0.73909432
-0.22509997 0.16057692 0.7350691
-0.16401954 0.088562436 0.73011124
-0.21456146 0.14510463 0.73170835
-0.16705395 0.18199034 0.75433761
-0.177729 0.16698073 0.71940064
-0.15668701 0.11595024 0.74760985
-0.14729479 0.21540223 0.71856111
-0.16409338 0.076503165 0.74728149
-0.18288721 0.16040544 0.75500256
-0.17531869 0.090922974 0.74777824
-0.20973626 0.16367781 0.72329754
-0.1421366 0.19673789 0.74851054
-0.16597953 0.10541445 0.74935323
-0.16161346 0.099657103 0.7331571
-0.15977617 0.12721607 0.74993736
-0.14153847 0.20683205 0.73988366
-0.15759473 0.16268891 0.7519027
-0.1584976 0.11800261 0.73201269
-0.21606982 0.1466815 0.7268827
-0.17237116 0.084488191 0.72929686
-0.16513196 0.19119281 0.75467348
-0.15003964 0.1757822 0.71869683
-0.16069351 0.098004386 0.7482062
-0.16935462 0.14364049 0.75220567
-0.21929593 0.15266743 0.73831111
-0.15944609 0.10861294 0.73722845
-0.20873763 0.17045602 0.74456972
-0.14853631 0.18070404 0.72317088
-0.17232859 0.18026572 0.75490516
-0.16243134 0.10893617 0.71542752
-0.19113401 0.11299822 0.74329519
-0.2001342 0.13591088 0.72030842
-0.15142913 0.1626215 0.72557789
-0.14792007 0.17714445 0.73213965
-0.18699944 0.16413212 0.75576591
-0.14255929 0.21549831 0.72148424
-0.14237463 0.21180005 0.72753817
-0.17606229 0.14889887 0.75339884
-0.20890394 0.13884369 0.74693066
-0.18246216 0.12026545 0.71705127
-0.1409173 0.20997095 0.74031848
-0.16663948 0.20088294 0.73452657
-0.18209405 0.11981151 0.75233155
-0.17305228 0.11985046 0.75117427
-0.16202429 0.1381104 0.75091529
-0.15274858 0.21243443 0.72122627
-0.20268151 0.17759262 0.72489524
-0.14970541 0.16321352 0.73716915
-0.14969149 0.1535919 0.74957711
-0.14698814 0.18487734 0.72892457
-0.18068434 0.098519251 0.71544695
-0.15464754 0.18983616 0.75324285
-0.1413143 0.21541093 0.73051536
-0.22215244 0.1550996 0.7245574
-0.19093895 0.1565796 0.72043693
-0.16143692 0.15563659 0.75194907
-0.17270359 0.13316531 0.7519722
-0.14460073 0.18364313 0.74760783
-0.14545316 0.2157325 0.73253173
-0.17184623 0.082484879 0.71886903
-0.22141998 0.16138293 0.74697864
-0.18707107 0.18479437 0.7481305
-0.14823994 0.21432465 0.72919089
-0.15379474 0.15225473 0.72189033
-0.16330414 0.10255882 0.71733189
-0.17003225 0.16543369 0.75367188
-0.17589349 0.12920441 0.71677446
-0.21820511 0.15057632 0.73388821
-0.15151396 0.1653509 0.72147793
-0.15141746 0.17413044 0.75183451
-0.14619863 0.19212975 0.75230408
-0.20997633 0.16846554 0.75210023
-0.18017252 0.18049039 0.72056925
-0.16557869 0.12135611 0.7503109
-0.14582051 0.17815955 0.74588275
-0.14804716 0.17616551 0.732481
-0.21583873 0.16817096 0.72745305
-0.15183319 0.14713013 0.74249858
-0.18170077 0.18602946 0.72111583
-0.17815979 0.1744491 0.71992868
-0.15890856 0.11136647 0.73755717
-0.1979212 0.17719276 0.74912995
-0.18529102 0.11356365 0.75234634
-0.1819315 0.11435951 0.71660936
-0.19765429 0.16892639 0.72207981
-0.16414794 0.14701228 0.71639472
-0.18482375 0.10100684 0.71858412
-0.20152022 0.16240974 0.7221635
-0.19501401 0.13958086 0.71988392
-0.17017154 0.15320741 0.75291586
-0.17358328 0.15804432 0.7183032
-0.21959388 0.15348695 0.74158698
-0.15938033 0.14874797 0.75124943
-0.18997024 0.18659905 0.72305697
-0.18158351 0.097154826 0.72508603
-0.17607389 0.17622687 0.71977371
-0.18912804 0.18240279 0.72183907
-0.18755548 0.1645283 0.72050595
-0.15349495 0.20734109 0.7514888
-0.17966737 0.093887284 0.72069305
-0.16166663 0.13978435 0.75097537
-0.17828445 0.13559429 0.71748549
-0.18131498 0.14499566 0.7538256
-0.14775035 0.1955944 0.75272244
-0.17556356 0.089049101 0.71419048
-0.22198333 0.15876047 0.75704449
-0.1561662 0.17938928 0.75277638
-0.15917732 0.11430415 0.73187363
-0.17669193 0.10065856 0.75042653
-0.20811386 0.14166014 0.75705224
-0.17740108 0.090473726 0.71925271
-0.15659049 0.11801375 0.7456618
-0.16368169 0.087737761 0.73358738
-0.15892403 0.11468288 0.73320407
-0.17220441 0.17801613 0.71939045
-0.18434936 0.18456288 0.72136271
-0.16342461 0.20472753 0.72371185
-0.16593386 0.17610444 0.75382155
-0.17736091 0.14415495 0.7532652
-0.21132006 0.14785181 0.72249913
-0.17734504 0.11702698 0.71618986
-0.18666448 0.18009825 0.75673366
-0.18725793 0.17841204 0.7213465
-0.19344826 0.11478786 0.73064703
-0.19420929 0.17452981 0.72199261
-0.1508754 0.19156609 0.71751189
-0.165448 0.16025037 0.7173993
-0.18293399 0.098768823 0.72244745
-0.19021089 0.15452239 0.7555697
-0.21551666 0.16661517 0.73919195
-0.18002082 0.19159698 0.73517185
-0.16264527 0.10583339 0.71786439
-0.14842871 0.18213978 0.72210503
-0.15037553 0.17173825 0.7214635
-0.17690055 0.089523889 0.71730387
-0.1422658 0.21191615 0.72816885
-0.14700888 0.17075971 0.74683517
-0.18620528 0.18667132 0.73965836
-0.17120689 0.1847609 0.75504571
-0.15982515 0.10179606 0.74323297
-0.19036369 0.10959964 0.72417295
-0.14732008 0.16654716 0.74999446
-0.16145939 0.20642018 0.72144431
-0.16999753 0.16566196 0.7536819
-0.17019156 0.18162577 0.71936065
-0.14232074 0.21872562 0.71906435
-0.1561728 0.12726356 0.73682183
-0.19136137 0.18559255 0.72339576
-0.20559198 0.13838215 0.72116494
-0.19347595 0.16862501 0.72152489
-0.18836428 0.10677925 0.72449332
-0.15490183 0.21116406 0.71985173
-0.15941988 0.10350409 0.74395216
-0.18695889 0.17378603 0.72101545
-0.17209268 0.19863646 0.72463077
-0.17462559 0.17392704 0.71944225
-0.1508604 0.17086641 0.71910471
-0.15890552 0.20758474 0.72533572
-0.19425009 0.17877916 0.75530261
-0.19804464 0.15341385 0.72114807
-0.21752043 0.16476734 0.74231023
-0.16392802 0.096868753 0.72014135
-0.17085104 0.14345616 0.71702957
-0.14444065 0.20709887 0.71874988
-0.14327568 0.21742775 0.73120999
-0.16452755 0.075123668 0.74470347
-0.17928894 0.09347105 0.72173274
-0.2035179 0.16723323 0.7580812
-0.2078408 0.17052467 0.72348768
-0.15873346 0.1933613 0.75398999
-0.14923128 0.21464613 0.72257107
-0.19667383 0.18091552 0.73019487
-0.14308584 0.20847197 0.72669941
-0.14929241 0.1983995 0.71774143
-0.14771257 0.17180671 0.74045449
-0.14644952 0.18091895 0.73784673
-0.15599705 0.13267168 0.73116279
-0.2016457 0.17122969 0.72273755
-0.14989771 0.17024654 0.7267943
-0.16795552 0.07737188 0.71622729
-0.21666299 0.14789011 0.72988206
-0.17996648 0.09664876 0.74012059
-0.16963035 0.19922815 0.73189205
-0.16087137 0.13095115 0.71495789
-0.15788502 0.11316106 0.74259543
-0.14673908 0.17296545 0.74594611
-0.1525884 0.2066948 0.71868932
-0.16888179 0.11568999 0.75037593
-0.15994374 0.12198319 0.74962765
-0.17039143 0.08983127 0.74893302
-0.20386657 0.17275056 0.75150782
-0.17517336 0.10762021 0.75067222
-0.17417769 0.18278241 0.71994525
-0.14451921 0.18855484 0.74190843
-0.19242997 0.11350861 0.73211855
-0.19730014 0.15979421 0.72145647
-0.17251776 0.15617606 0.71804839
-0.15733489 0.16816071 0.71685928
-0.21571539 0.16649441 0.73908889
-0.20084535 0.12803674 0.75288934
-0.14835458 0.17846903 0.72733253
-0.16868174 0.14050284 0.7519207
-0.15089533 0.16741805 0.72326547
-0.16253805 0.20035033 0.75492036
-0.17851029 0.1860806 0.75606608
-0.1932943 0.17297514 0.72177678
-0.20301412 0.17642532 0.7310974
-0.19673304 0.17956521 0.73884678
-0.18770494 0.15909994 0.72018152
-0.17318124 0.1950521 0.74337143
-0.19160417 0.18473338 0.72230411
-0.18111826 0.095682643 0.71836907
-0.18112524 0.12156145 0.71696174
-0.17979224 0.1491673 0.71853799
-0.22383323 0.16002284 0.74501771
-0.14722042 0.20189701 0.75305343
-0.15267274 0.15229312 0.72987962
-0.21030317 0.17080383 0.73517007
-0.1854049 0.18632944 0.745547
-0.21530966 0.15516789 0.75883031
-0.15802301 0.11136134 0.74390835
-0.21339495 0.15837948 0.72343141
-0.18410043 0.11518894 0.71694005
-0.2084302 0.13565719 0.72604388
-0.17365624 0.090884015 0.71406204
-0.18870991 0.18615299 0.73172086
-0.16789049 0.14733489 0.75225163
-0.18899198 0.18373224 0.72190577
-0.14851725 0.17538139 0.75154138
-0.21020354 0.13769062 0.72186357
-0.15499379 0.12495876 0.74821717
-0.15344082 0.13379297 0.74804229
-0.16018064 0.19670099 0.71903062
-0.18634848 0.1108821 0.71695584
-0.21472134 0.14598379 0.73712426
-0.14425199 0.19735172 0.73256975
-0.15751767 0.11363455 0.7446211
-0.21271203 0.1604671 0.72347605
-0.15168628 0.16767594 0.71726936
-0.16280892 0.12339346 0.7500844
-0.14549576 0.2012804 0.718633
-0.19000417 0.18260866 0.74926406
-0.20437743 0.16673453 0.72280359
-0.15759158 0.20821075 0.72716033
-0.19308144 0.15704869 0.72074157
-0.1582071 0.12436496 0.72595525
-0.16347684 0.18512204 0.71872073
-0.19205831 0.16324817 0.7210027
-0.17520437 0.16989259 0.71926111
-0.16648148 0.20095824 0.73474622
-0.14986438 0.16283591 0.75092041
-0.1545276 0.14363858 0.72766179
-0.20262755 0.13004309 0.74837756
-0.1645183 0.11678344 0.74988538
-0.15486893 0.14039007 0.72937173
-0.22214751 0.15574092 0.72995508
-0.19015495 0.18153751 0.75565672
-0.14637129 0.18479761 0.73344594
-0.14170882 0.21846576 0.73146027
-0.16389574 0.15882906 0.75246662
-0.16144699 0.11245462 0.71797955
-0.16283767 0.10732132 0.71458209
-0.180903 0.1806494 0.72067302
-0.16308771 0.10338877 0.74885404
-0.14883576 0.1902082 0.7171644
-0.15316992 0.20989481 0.73609191
-0.21385296 0.14452301 0.73530072
-0.16703872 0.18823056 0.75473058
-0.17099077 0.18388717 0.75496268
-0.1418843 0.19621658 0.75098515
-0.20084333 0.12666433 0.74148899
-0.14846347 0.21438257 0.72779423
-0.14674169 0.21278423 0.74616373
-0.19865178 0.15621895 0.72140354
-0.14739406 0.17717013 0.75151056
-0.15716727 0.18404409 0.71784306
-0.17415059 0.18851693 0.75566101
-0.17395245 0.17840205 0.71963912
-0.19636188 0.11839095 0.7259596
-0.14010485 0.21588807 0.73857009
-0.17009579 0.14741258 0.75253934
-0.22421759 0.15880096 0.7307874
-0.14971201 0.16975468 0.75133878
-0.14729792 0.18008293 0.73283821
-0.1487767 0.16605841 0.74018347
-0.19842979 0.12171135 0.72898686
-0.19910809 0.12249481 0.72743487
-0.18116763 0.097397514 0.73205644
-0.1940791 0.16441514 0.72133559
-0.16433425 0.13941491 0.75129408
-0.16926034 0.14552878 0.75231308
-0.19270727 0.1304521 0.75436658
-0.20887248 0.15995201 0.75830734
-0.17288247 0.18245882 0.75511491
-0.19933203 0.17454739 0.72265089
-0.20582093 0.14283757 0.75683266
-0.16348955 0.098659031 0.7209931
-0.14408459 0.20900655 0.71886003
-0.18153325 0.17447552 0.75571954
-0.18497154 0.10105479 0.71722382
-0.15786831 0.12684104 0.72521508
-0.20660059 0.17280579 0.73873991
-0.19059804 0.18098414 0.75729424
-0.19621554 0.12779921 0.71929234
-0.15489079 0.14724991 0.72043955
-0.15406159 0.1441616 0.73033178
-0.21107143 0.14308256 0.75641751
-0.18773746 0.17767024 0.7567175
-0.18077239 0.18899921 0.7489242
-0.16483288 0.083419897 0.73086298
-0.22079681 0.15607676 0.72423536
-0.16298214 0.086654283 0.73998433
-0.15437272 0.2018013 0.75396478
-0.20926034 0.1386852 0.74136931
-0.18992919 0.18028405 0.7218076
-0.1385099 0.21810047 0.74838394
-0.1799877 0.11677206 0.71651274
-0.17864215 0.14848655 0.75370371
-0.15772799 0.14784952 0.71562427
-0.16751958 0.157451 0.75284427
-0.17409167 0.12073018 0.71600682
-0.15280302 0.13898107 0.74978745
-0.14677955 0.17699978 0.74049562
-0.19208884 0.12382181 0.71851116
-0.20208681 0.12666431 0.72668815
-0.15874697 0.10855483 0.74231178
-0.14579308 0.19639216 0.72275633
-0.15627444 0.13955976 0.72036481
-0.15238085 0.14883643 0.73639274
-0.16362636 0.097969845 0.72089434
-0.15749192 0.20359308 0.71912193
-0.17457049 0.19602855 0.72083402
-0.16705516 0.15347466 0.75253308
-0.18009144 0.12961748 0.75269538
-0.15458408 0.14207597 0.72925586
-0.15741125 0.20712386 0.73515838
-0.15126497 0.16725047 0.75137937
-0.17704831 0.091773197 0.73426867
-0.15419337 0.14558697 0.72756416
-0.13960995 0.20873341 0.75126797
-0.18121387 0.17507172 0.75571626
-0.17988253 0.095416047 0.73085833
-0.14117755 0.21505952 0.7319445
-0.14170201 0.205845 0.7399748
-0.15929414 0.14475389 0.71562922
-0.18477504 0.10310812 0.73665547
-0.14760363 0.16655906 0.74794757
-0.15620852 0.15251648 0.71572459
-0.14747809 0.19895016 0.75289989
-0.17199592 0.18965073 0.72010005
-0.16804092 0.11357629 0.75013423
-0.14770523 0.16848604 0.74475473
-0.14761889 0.19707808 0.75279945
-0.18264174 0.1351033 0.75336975
-0.17574891 0.089238673 0.7286368
-0.17943065 0.1676179 0.71965927
-0.18466404 0.13675463 0.71837723
-0.19791031 0.14964345 0.72089231
-0.17385547 0.15414385 0.71809143
-0.1502057 0.20750672 0.71843499
-0.17764427 0.090755425 0.71870327
-0.14231418 0.21745108 0.72074175
-0.15459128 0.21030219 0.72695398
-0.14847988 0.19335634 0.71731788
-0.19955577 0.17915432 0.72875768
-0.21550161 0.16322295 0.75936484
-0.2030668 0.12903482 0.73475635
-0.14900726 0.17483999 0.72729826
-0.17583604 0.19540803 0.72897816
-0.16041337 0.13784812 0.71533573
-0.15878066 0.14883907 0.71582186
-0.21166238 0.16504982 0.75898778
-0.16763197 0.093610518 0.71346182
-0.14470528 0.19800924 0.72848099
-0.17471899 0.15062131 0.7533356
-0.15960135 0.19989125 0.71915817
-0.22013572 0.16126367 0.75359321
-0.16515988 0.11504599 0.74985772
-0.1778426 0.16032945 0.7543506
-0.16302912 0.18509269 0.75401777
-0.18776862 0.1449967 0.75465351
-0.1789642 0.15888275 0.75440305
-0.21021664 0.13863835 0.72959673
-0.20573527 0.17322376 0.72338843
-0.20051241 0.12440802 0.72664517
-0.15989088 0.20770194 0.72009128
-0.18312411 0.10122234 0.74060822
-0.20436674 0.13257353 0.74874073
-0.1673561 0.15910579 0.71757168
-0.15420152 0.15445198 0.71616542
-0.15222709 0.21012682 0.73883712
-0.18109205 0.19194821 0.72799182
-0.15444471 0.13795683 0.73552316
-0.20570852 0.17198509 0.74820912
-0.15616675 0.13712655 0.72424811
-0.1864185 0.11435714 0.75254112
-0.20855731 0.17267033 0.73075944
-0.16493775 0.18461707 0.75423247
-0.20090063 0.14511175 0.75634539
-0.18722565 0.18784568 0.72727108
-0.18200953 0.15158471 0.75433183
-0.1484513 0.17559813 0.73031104
-0.16729708 0.13676143 0.75150633
-0.19972855 0.16587666 0.75750929
-0.16973992 0.091130577 0.71357518
-0.19395445 0.18297617 0.72249448
-0.21247585 0.14201747 0.73083514
-0.18753193 0.17688194 0.75664115
-0.19345301 0.1149202 0.73169142
-0.1674546 0.1034539 0.71406204
-0.1509762 0.19604664 0.75316489
-0.15925929 0.13598228 0.75042588
-0.16125506 0.1612625 0.71692556
-0.19759515 0.18070635 0.7273984
-0.22152238 0.1564462 0.72435176
-0.16222435 0.087064311 0.74488932
-0.14084841 0.21663044 0.74748743
-0.19918773 0.12431958 0.74167669
-0.16495271 0.15268603 0.75221342
-0.16727488 0.10727539 0.74963719
-0.19764297 0.12136061 0.71906799
-0.16632049 0.11732449 0.71479452
-0.21812455 0.15088078 0.72356373
-0.16428502 0.096231796 0.71839875
-0.19931445 0.12724908 0.71965504
-0.16506229 0.14132509 0.75150836
-0.15931252 0.15779065 0.71645665
-0.18954949 0.13149598 0.75402755
-0.15894844 0.16918315 0.7171309
-0.22412759 0.16150825 0.73386919
-0.21432251 0.16948088 0.72567779
-0.1607085 0.11918687 0.71465826
-0.16610758 0.078624167 0.72786498
-0.14999005 0.1662145 0.731291
-0.17490569 0.16548499 0.75430018
-0.15962 0.10815305 0.73657107
-0.14608613 0.20011126 0.71743852
-0.18104371 0.19061792 0.73699939
-0.16265118 0.14406149 0.71601593
-0.22278963 0.15810619 0.74200088
-0.15640947 0.20745015 0.73754692
-0.16493998 0.20346132 0.72520262
-0.17917295 0.12157272 0.75206834
-0.17126009 0.098496929 0.7495929
-0.16765697 0.078303471 0.71717465
-0.2066033 0.14613834 0.72178555
-0.16528609 0.11267692 0.71436757
-0.1525792 0.14061056 0.74549448
-0.17713186 0.10828769 0.75096577
-0.19227089 0.16966698 0.7214362
-0.19227229 0.13007484 0.75428689
-0.15649597 0.15405338 0.71585864
-0.1621318 0.086740464 0.74596739
-0.18315515 0.10046279 0.71588683
-0.1791746 0.11980733 0.71660054
-0.18990704 0.13721478 0.75443536
-0.20746508 0.17272489 0.73535389
-0.19485271 0.14133106 0.71997398
-0.15523675 0.14628053 0.71920174
-0.16036622 0.20317297 0.74785519
-0.15114424 0.1574948 0.73417646
-0.18466642 0.18542741 0.75485599
-0.17543459 0.1938132 0.74133468
-0.1667847 0.1332756 0.75122005
-0.19633332 0.18135393 0.72884309
-0.1673636 0.12470153 0.71539521
-0.21471293 0.16706492 0.73986715
-0.1646484 0.078071922 0.73902589
-0.17664886 0.17303015 0.71964502
-0.14823881 0.16810159 0.74142361
-0.15392518 0.14734752 0.72723329
-0.20009375 0.12638244 0.74806416
-0.15736723 0.12856977 0.72659338
-0.16320716 0.094636038 0.72816223
-0.22041968 0.16270009 0.7246061
-0.19039007 0.15667403 0.75572896
-0.22007079 0.16294426 0.74278504
-0.18941438 0.10901455 0.73060119
-0.13837637 0.21708591 0.74942142
-0.21338286 0.16493925 0.72384512
-0.19065611 0.11361884 0.75303799
-0.186065 0.17379716 0.72090149
-0.16476229 0.086821377 0.7270171
-0.16827895 0.18374161 0.75460565
-0.21280894 0.16559401 0.72381294
-0.17018762 0.13718897 0.71654767
-0.16684578 0.082408667 0.71773517
-0.16447237 0.20311196 0.72963202
-0.16353242 0.098121487 0.72137326
-0.15532437 0.14602463 0.71890074
-0.1831331 0.13391392 0.71800119
-0.1548074 0.12716895 0.74672568
-0.18406355 0.19027731 0.72555143
-0.16409959 0.18458132 0.71876627
-0.15832698 0.11589529 0.73593092
-0.1611231 0.17748883 0.7532919
-0.16171607 0.20482923 0.73078948
-0.15650798 0.13633482 0.72281659
-0.188482 0.18457328 0.74319065
-0.16191278 0.09209165 0.74069023
-0.16092697 0.1922681 0.71884578
-0.16345043 0.082348764 0.74756896
-0.16705817 0.11305114 0.71461862
-0.16604427 0.20197876 0.72998762
-0.15529259 0.1907496 0.75338334
-0.1679139 0.11436419 0.7148115
-0.20644267 0.13618369 0.75408405
-0.18033957 0.1313832 0.71748269
-0.18816879 0.10847201 0.71703684
-0.16987492 0.18745872 0.75504559
-0.1445515 0.18964556 0.7402817
-0.16296755 0.16628939 0.71746337
-0.16917834 0.10060819 0.74945933
-0.21405649 0.16568173 0.75198251
-0.17515767 0.1101658 0.71547502
-0.16143414 0.17328849 0.75306606
-0.21040423 0.14655162 0.72229934
-0.16690564 0.082380779 0.71734202
-0.20107685 0.17737359 0.72305363
-0.17045306 0.082303345 0.73393947
-0.20753095 0.16525865 0.72311479
-0.14406361 0.21139021 0.71789289
-0.1551064 0.12527026 0.74701208
-0.15888083 0.20720659 0.72794664
-0.16372699 0.089485087 0.74805617
-0.14331037 0.19770132 0.73886907
-0.15018247 0.1887989 0.75260419
-0.16959351 0.1427296 0.71682227
-0.18164927 0.098127015 0.73239636
-0.20310996 0.17064863 0.75824511
-0.2008419 0.13927029 0.75596821
-0.22050922 0.15277605 0.72477359
-0.19535778 0.17058615 0.75724673
-0.21238779 0.16789098 0.74495733
-0.15055336 0.15863788 0.75074291
-0.1559985 0.20138581 0.71879065
-0.16138962 0.15233628 0.71637785
-0.17385383 0.087151527 0.7338196
-0.18860859 0.11048479 0.75243169
-0.17989708 0.095582388 0.73206949
-0.1541484 0.15414578 0.71693724
-0.16526285 0.11251932 0.74971104
-0.20803352 0.17038992 0.74820006
-0.18892738 0.17329854 0.72123694
-0.17878637 0.092227131 0.71480507
-0.18931213 0.11695456 0.75307673
-0.22196889 0.16121474 0.74560046
-0.19464192 0.15771788 0.72098404
-0.20178735 0.15933578 0.75735933
-0.15613078 0.19117388 0.75351763
-0.18443021 0.10846774 0.71655691
-0.16563137 0.14177687 0.75161004
-0.18161954 0.10782195 0.75151199
-0.22107105 0.15635021 0.74783957
-0.16130519 0.095336579 0.74089259
-0.20951283 0.13714677 0.72555751
-0.16387613 0.20322043 0.7199173
-0.15112458 0.15240858 0.74082392
-0.16883431 0.20072995 0.72558087
-0.14293022 0.21706082 0.7352007
-0.16856949 0.19681156 0.75266808
-0.16068584 0.10640382 0.73117286
-0.18944679 0.1109281 0.74614549
-0.17953373 0.18854471 0.7209971
-0.17784661 0.15043822 0.71836871
-0.15497589 0.13958192 0.75010419
-0.1697087 0.086643882 0.74864352
-0.15445788 0.13453496 0.73980677
-0.16506441 0.20331647 0.7255953
-0.16551097 0.094005898 0.7485711
-0.16773123 0.13488372 0.7160868
-0.15561932 0.20755148 0.7404626
-0.19451302 0.14648066 0.75561261
-0.17691323 0.091521442 0.73378056
-0.22204638 0.15657137 0.73807132
-0.20932329 0.13796289 0.72161704
-0.22407386 0.15944944 0.7378965
-0.18234713 0.11236097 0.75189263
-0.14786439 0.18007851 0.75175506
-0.20585801 0.13839602 0.72119987
-0.18635109 0.12895691 0.75345641
-0.16999455 0.19830823 0.72039127
-0.16475858 0.078144662 0.73814279
-0.21172324 0.14577626 0.72241938
-0.16400841 0.094211541 0.72296512
-0.22217277 0.16300292 0.73286223
-0.21206449 0.15543456 0.7230745
-0.15312174 0.18316008 0.75262439
-0.17463626 0.11728932 0.715859
-0.16076589 0.20305815 0.71950799
-0.1826545 0.09834221 0.72222251
-0.17954087 0.1605476 0.75458235
-0.15811358 0.1326683 0.7160033
-0.16558452 0.079349771 0.73068428
-0.13942759 0.21638437 0.74278736
-0.18364258 0.10344774 0.75149459
-0.21773773 0.1646294 0.74223554
-0.19267491 0.174738 0.75716525
-0.20218785 0.17524663 0.74263251
-0.17833632 0.11521158 0.75155848
-0.15816855 0.1301908 0.74991941
-0.15745296 0.12240021 0.733872
-0.1678762 0.19702744 0.75438708
-0.16507658 0.094839297 0.71450895
-0.17342299 0.09528742 0.74966723
-0.19369313 0.15291461 0.72055829
-0.17666888 0.089436881 0.71933693
-0.17024621 0.19226114 0.72004098
-0.16386259 0.085106179 0.73565733
-0.1806553 0.13495691 0.75310558
-0.1641857 0.097981565 0.7168718
-0.18177785 0.12555043 0.71729797
-0.18323202 0.16581982 0.75538951
-0.21010257 0.16398503 0.723364
-0.17062917 0.14974986 0.75275582
-0.19960572 0.15618275 0.72152352
-0.15786044 0.15988141 0.71640259
-0.19257434 0.11470592 0.74036658
-0.21870461 0.1545321 0.75922543
-0.14073126 0.20393147 0.74937671
-0.16147295 0.20320556 0.7426191
-0.18576247 0.13506617 0.71841139
-0.19625412 0.14316328 0.75562596
-0.17999417 0.09709283 0.71526808
-0.17194737 0.085242763 0.74062258
-0.15423754 0.21114269 0.72300518
-0.14281172 0.21164516 0.72460419
-0.18850778 0.14752364 0.71955198
-0.14962101 0.16857792 0.73091185
-0.14368361 0.19820125 0.73555493
-0.16813287 0.13336231 0.75139827
-0.15855865 0.1140066 0.73668694
-0.15769662 0.13555779 0.7501986
-0.16893269 0.080793388 0.73946697
-0.17557125 0.093991265 0.7145043
-0.1944005 0.15090013 0.75587791
-0.15523615 0.19772302 0.71846104
-0.1923933 0.18135408 0.74671429
-0.17568998 0.091606192 0.74904621
-0.14809915 0.16808847 0.742441
-0.15036516 0.20588744 0.7537092
-0.15044653 0.16413766 0.73067749
-0.16356879 0.12807706 0.75047845
-0.17419504 0.11489801 0.71565104
-0.16143294 0.11404511 0.71604496
-0.16104873 0.10716854 0.72759473
-0.14444146 0.19997256 0.72786009
-0.15566395 0.20835985 0.73491991
-0.18162867 0.17306501 0.75564241
-0.16965985 0.19548799 0.75552624
-0.16536744 0.092905372 0.71489888
-0.15644902 0.1378184 0.75018162
-0.19937097 0.17487352 0.72267646
-0.14869781 0.17512769 0.72914749
-0.1615503 0.12068242 0.74975139
-0.14772594 0.17698441 0.73373508
-0.20995501 0.16356948 0.7586751
-0.17206444 0.14862573 0.75286865
-0.16467522 0.095573895 0.71644449
-0.21110764 0.15254845 0.72276914
-0.14410685 0.18708904 0.74673772
-0.19693348 0.17984544 0.73608631
-0.19432351 0.1160429 0.73067635
-0.1862341 0.11305258 0.75243485
-0.21842135 0.16058387 0.72421581
-0.19388154 0.18161079 0.73826861
-0.16287793 0.16537713 0.75275046
-0.15564926 0.12654838 0.74148756
-0.19321008 0.17400452 0.75718755
-0.16820227 0.13521716 0.75152475
-0.13809077 0.21781452 0.75217378
-0.17242736 0.094782993 0.74950749
-0.15206334 0.14797863 0.73976469
-0.14362064 0.19961916 0.73419237
-0.14619876 0.21470703 0.73592412
-0.21784666 0.15123537 0.74364066
-0.16814846 0.16924264 0.71831489
-0.15224923 0.17685205 0.75211334
-0.19653921 0.13326977 0.71968007
-0.17138159 0.090281434 0.713732
-0.18686309 0.10672482 0.74190879
-0.15807077 0.12242319 0.7294156
-0.14851286 0.16012347 0.74966627
-0.14993975 0.19922279 0.71787661
-0.15337284 0.15538238 0.72091198
-0.17406537 0.14574324 0.7175867
-0.15745287 0.16899461 0.71692705
-0.14478633 0.19032265 0.73773319
-0.18640922 0.12295062 0.71772754
-0.20161006 0.12632921 0.71989131
-0.20655067 0.13484403 0.74164653
-0.14937602 0.15987536 0.74379957
-0.15359496 0.1489943 0.75052267
-0.16959815 0.08079417 0.73155302
-0.15584664 0.15052547 0.75090855
-0.22503409 0.15948467 0.7267611
-0.15612946 0.15963997 0.71616524
-0.19358629 0.13005948 0.75445449
-0.16996993 0.19866689 0.73405892
-0.15385346 0.13476522 0.74384248
-0.19459772 0.12390909 0.75419492
-0.16655031 0.17625964 0.71855408
-0.17347132 0.10284614 0.71479535
-0.20114934 0.14954284 0.75665766
-0.2084989 0.14268461 0.7571665
-0.15417607 0.20054343 0.75385994
-0.19215842 0.18330733 0.73487616
-0.14253712 0.20289215 0.73776871
-0.16330191 0.10328089 0.71642482
-0.19327697 0.11329246 0.72023672
-0.19289939 0.11586659 0.7461592
-0.14426924 0.21709377 0.72891027
-0.16209711 0.10336015 0.72495508
-0.16960903 0.082426988 0.74501526
-0.20000625 0.12369254 0.72671449
-0.14736509 0.17117579 0.75112754
-0.16260789 0.10315601 0.72155696
-0.14425293 0.19701037 0.73299956
-0.17175573 0.11415589 0.75064743
-0.1636517 0.20422098 0.72602791
-0.1595622 0.11138406 0.73285228
-0.14263144 0.20998168 0.72802359
-0.14104886 0.21697521 0.73041618
-0.2201997 0.16488172 0.72940117
-0.142124 0.21101537 0.73033673
-0.17539489 0.087071024 0.71480644
-0.20028313 0.14769311 0.72107315
-0.16551493 0.092332616 0.71457481
-0.14772983 0.17007439 0.74254692
-0.16146086 0.20308621 0.74346274
-0.16250072 0.10700338 0.71740299
-0.15240486 0.15495633 0.7507475
-0.19548143 0.12825012 0.71922678
-0.15423784 0.14202522 0.73180169
-0.15313578 0.20048273 0.71836621
-0.16227399 0.17817591 0.75348306
-0.17831179 0.15931153 0.71898991
-0.2008815 0.15643379 0.75705951
-0.15404561 0.14357363 0.75023752
-0.16371788 0.093189776 0.72635317
-0.15189943 0.14778049 0.74119222
-0.15939537 0.13695922 0.71514881
-0.17781503 0.17998226 0.72023457
-0.21250449 0.15055218 0.75817841
-0.1846876 0.13984677 0.7539323
-0.17598699 0.19492371 0.73149365
-0.16289243 0.10414273 0.71825606
-0.20271538 0.15358666 0.75711447
-0.17137003 0.17346655 0.71899551
-0.18199158 0.19031204 0.73472065
-0.18365315 0.15548532 0.75478947
-0.17712331 0.19369814 0.73443437
-0.15190084 0.16305843 0.72163868
-0.14026174 0.21572214 0.73765785
-0.14241146 0.21822694 0.72985101
-0.14747983 0.18838851 0.72090989
-0.19495837 0.12433206 0.75426787
-0.19292034 0.16994499 0.7568934
-0.20776989 0.15818952 0.75805438
-0.16886355 0.077720255 0.71470851
-0.15084603 0.21115939 0.7382794
-0.19001524 0.152206 0.75539798
-0.14341502 0.20734113 0.72578788
-0.19757061 0.123932 0.75457788
-0.15598817 0.17383258 0.71704549
-0.21970421 0.16434059 0.73522311
-0.18367271 0.17373292 0.72059041
-0.18256855 0.17594376 0.75594509
-0.18793945 0.18445335 0.72181648
-0.15425716 0.21132675 0.72170007
-0.20722879 0.15059999 0.75750458
-0.16372642 0.084962688 0.73681641
-0.19741338 0.1222233 0.74534631
-0.19995289 0.12538873 0.74146903
-0.17147492 0.094273552 0.74935311
-0.1416201 0.200203 0.74777794
-0.16513957 0.13370432 0.71567959
-0.16803569 0.11276 0.75008196
-0.16919655 0.15501691 0.71754891
-0.16056544 0.1101619 0.72722781
-0.20750919 0.16965736 0.75541824
-0.1449955 0.20157655 0.72183836
-0.14640428 0.1744186 0.7464866
-0.20293231 0.17658429 0.73041844
-0.14313197 0.21346611 0.71998042
-0.16018717 0.11528357 0.72338593
-0.17099531 0.14702521 0.71727401
-0.16605762 0.077429116 0.72975194
-0.1840466 0.11519197 0.75228977
-0.19908378 0.12346669 0.73581403
-0.14515387 0.2033954 0.71837753
-0.15759303 0.13461518 0.75012571
-0.17752431 0.16353881 0.7191565
-0.14956826 0.17297879 0.72565949
-0.14384872 0.19824111 0.7343213
-0.1744089 0.16735452 0.75435489
-0.15556245 0.13664553 0.72919303
-0.16828921 0.143924 0.75208682
-0.22011815 0.15289874 0.73045027
-0.219367 0.15441848 0.75204176
-0.17486916 0.14449234 0.75296694
-0.21439338 0.14505424 0.7332902
-0.16599548 0.075777113 0.73267072
-0.20011324 0.16143912 0.7219215
-0.20435999 0.13712294 0.72092724
-0.1486519 0.18812411 0.71700889
-0.16938716 0.17644592 0.75428611
-0.16294518 0.086627394 0.74028409
-0.16660923 0.1519503 0.71702302
-0.20663698 0.17369641 0.73269165
-0.15610844 0.13481639 0.72762167
-0.15576591 0.13547 0.72923899
-0.15317856 0.20922682 0.74046606
-0.19950974 0.16704327 0.75755507
-0.20036921 0.16036525 0.75724262
-0.16215299 0.20584583 0.72209221
-0.14836627 0.1649975 0.74448121
-0.19367068 0.14129546 0.75517642
-0.20135069 0.15653473 0.72176969
-0.17889002 0.14513487 0.71816707
-0.16604145 0.14857253 0.75209278
-0.17381629 0.17804644 0.75495541
-0.15600666 0.187664 0.75327969
-0.15584683 0.12137862 0.74668539
-0.16245028 0.19931249 0.75484341
-0.20658813 0.1365433 0.755346
-0.21316974 0.14203505 0.72272241
-0.1533798 0.14662009 0.75034499
-0.18820004 0.12557161 0.71812308
-0.16736104 0.076631293 0.72143358
-0.16454054 0.09044271 0.72397369
-0.18067527 0.14967285 0.7186833
-0.14453019 0.18168528 0.75061721
-0.15476707 0.17741206 0.75247192
-0.2040447 0.13036273 0.73417097
-0.17010747 0.19902715 0.73105496
-0.15605167 0.13932842 0.72225565
-0.20182049 0.17436284 0.75013739
-0.16722053 0.19953829 0.7407741
-0.19995722 0.17208357 0.75793153
-0.16816324 0.19911796 0.7392748
-0.17437741 0.12112545 0.71606863
-0.1540044 0.13427703 0.74338579
-0.16114733 0.14765447 0.75140673
-0.19323502 0.17462134 0.7218734
-0.20419 0.14677717 0.75687277
-0.19996311 0.16670139 0.72223514
-0.21000728 0.1382606 0.7217235
-0.1901982 0.1827736 0.74729407
-0.20382184 0.15889965 0.7575928
-0.17471555 0.14990246 0.71793318
-0.17922813 0.19248496 0.7212072
-0.19393995 0.11449979 0.72239596
-0.17089449 0.19892219 0.72817802
-0.21630467 0.14796756 0.73479217
-0.15482271 0.13087854 0.74187022
-0.15217005 0.15454943 0.73059434
-0.15109818 0.20556694 0.71842664
-0.15347829 0.13640498 0.74443257
-0.17371091 0.1064898 0.71505684
-0.14835997 0.17927447 0.72626358
-0.14563875 0.17728709 0.74830097
-0.20620485 0.14229034 0.7568472
-0.1747933 0.10640045 0.7505464
-0.16722594 0.12967314 0.7156921
-0.18680191 0.10460006 0.72494888
-0.13837592 0.2150352 0.75204796
-0.1493383 0.16724968 0.73463601
-0.13892333 0.2172377 0.7453081
-0.1922861 0.12807946 0.75416237
-0.17258057 0.086863838 0.74657971
-0.15703201 0.13601831 0.71946681
-0.17580196 0.090519249 0.73866516
-0.16905195 0.18246262 0.71926743
-0.18176575 0.13094011 0.71763754
-0.16016652 0.10662878 0.74868447
-0.1406271 0.20767 0.74534065
-0.18986115 0.18395008 0.74105155
-0.17853667 0.10520802 0.71559465
-0.18537408 0.1035319 0.73305297
-0.188364 0.14092232 0.75447208
-0.21278684 0.14345886 0.7391324
-0.15687627 0.12091599 0.73990166
-0.16455476 0.18443279 0.71881533
-0.20027624 0.15934663 0.75716627
-0.16685142 0.076641046 0.72967392
-0.15422408 0.14474416 0.72842169
-0.14827362 0.1722863 0.73582101
-0.19246359 0.1224208 0.71847057
-0.21904947 0.1616971 0.75565666
-0.19551332 0.1474905 0.7558049
-0.21222705 0.16756646 0.74782968
-0.15449005 0.20817468 0.74146789
-0.20300221 0.13097192 0.75165057
-0.15482111 0.14808591 0.71986955
-0.16176552 0.10065205 0.7307952
-0.16745915 0.1475706 0.71685487
-0.18144213 0.098766118 0.74018192
-0.17250893 0.18577844 0.75527716
-0.16486898 0.083669826 0.74783444
-0.15813181 0.1243588 0.72650206
-0.15168831 0.16580094 0.71965355
-0.16060242 0.1836385 0.71825796
-0.20409779 0.17220703 0.75404966
-0.21678609 0.1502535 0.74809116
-0.21198957 0.16622521 0.75776792
-0.15958825 0.11597566 0.7267918
-0.15947744 0.20424339 0.74481505
-0.16650967 0.19647008 0.71982789
-0.20494862 0.14495713 0.72149843
-0.15614067 0.20604722 0.74803501
-0.21895875 0.15546684 0.75931728
-0.18011463 0.1154547 0.75180185
-0.18309872 0.13738756 0.71821642
-0.17238736 0.19740438 0.72064096
-0.16865075 0.079408243 0.73129302
-0.15527061 0.12968282 0.7401911
-0.1414663 0.21863689 0.72529936
-0.19188868 0.1536427 0.75572926
-0.15734214 0.14070356 0.75047868
-0.14111024 0.20223066 0.74883753
-0.16921243 0.085206345 0.71313268
-0.17845722 0.092224672 0.72125721
-0.20772336 0.17194679 0.73932242
-0.17089874 0.083887443 0.74182153
-0.17886825 0.092229135 0.71640217
-0.19191918 0.14899181 0.72008252
-0.17491634 0.19397759 0.74259996
-0.16076133 0.20651764 0.72396648
-0.16086057 0.094369464 0.74799752
-0.20929173 0.13763376 0.73224306
-0.14469247 0.19728988 0.72949356
-0.15646583 0.14741842 0.71543503
-0.16185607 0.091140494 0.74231356
-0.1644543 0.19271624 0.71932667
-0.21251822 0.14199799 0.73016882
-0.14161177 0.20408507 0.74287182
-0.1443783 0.19075093 0.74010891
-0.20617297 0.13218811 0.72403347
-0.14525896 0.21499181 0.73830605
-0.19616523 0.13380621 0.71966618
-0.19496609 0.14265029 0.72007203
-0.15470053 0.16841288 0.71653736
-0.2158474 0.14742841 0.73574704
-0.18105187 0.097963706 0.73814726
-0.16524845 0.20303939 0.72659069
-0.22095877 0.15462461 0.73481137
-0.20652951 0.16593775 0.72302914
-0.16045536 0.17844309 0.71791029
-0.16993694 0.19392553 0.72010654
-0.22331277 0.15694533 0.72611046
-0.1545288 0.16349809 0.75156045
-0.15034537 0.16430388 0.73118961
-0.16012317 0.15903743 0.75199574
-0.16067851 0.15786822 0.71663684
-0.18433125 0.10099946 0.72438461
-0.16365641 0.20254649 0.73706865
-0.21467598 0.14838086 0.7576189
-0.16165954 0.096511155 0.73685163
-0.18512397 0.12364855 0.71760678
-0.19691956 0.1188319 0.72299296
-0.13892566 0.21538335 0.74766356
-0.14027396 0.21656494 0.75052595
-0.14125565 0.21270348 0.7343986
-0.20497535 0.17353652 0.74128515
-0.15110208 0.15443692 0.73839051
-0.16873382 0.18826954 0.75495058
-0.21696045 0.14896774 0.73531246
-0.20008031 0.12544915 0.74045545
-0.22275785 0.15844853 0.74522918
-0.1617533 0.090386517 0.74786001
-0.15315506 0.14275925 0.7386198
-0.15594141 0.13415372 0.72966534
-0.18515648 0.18125553 0.75661331
-0.19169942 0.11096573 0.71764767
-0.19782549 0.1455029 0.75597566
-0.14768603 0.18614295 0.7223053
-0.20079002 0.17390858 0.75781262
-0.17670256 0.19194798 0.74790496
-0.20091364 0.175666 0.74564224
-0.19130415 0.11089496 0.72376186
-0.15514573 0.14054745 0.72718763
-0.20258349 0.12694052 0.72307551
-0.15483832 0.16885783 0.75193942
-0.172269 0.18590048 0.71989763
-0.16467163 0.10297821 0.71367502
-0.15752566 0.20837368 0.72638345
-0.21071395 0.16565457 0.72354811
-0.18012349 0.18913743 0.75095534
-0.14713039 0.21487029 0.73061925
-0.15420851 0.1320392 0.74478543
-0.17170247 0.18714231 0.75526005
-0.17242239 0.1476603 0.75285357
-0.20886636 0.13782981 0.73893809
-0.17057325 0.19606493 0.74851167
-0.17805788 0.093157649 0.73377681
-0.15325183 0.19837141 0.75360382
-0.15935639 0.1280015 0.71457696
-0.15677214 0.17321491 0.75246328
-0.20306131 0.16176908 0.7223205
-0.20364289 0.16561364 0.75799483
-0.1429998 0.20613834 0.73030144
-0.15315239 0.21073604 0.73061508
-0.18730144 0.10916623 0.75232589
-0.2198925 0.15924948 0.7596764
-0.1504975 0.20905776 0.75374478
-0.17963864 0.095729232 0.7363683
-0.16529471 0.14064039 0.71613848
-0.20573479 0.13483587 0.72095883
-0.18526827 0.18442266 0.72147179
-0.16687007 0.15702718 0.75273401
-0.15768291 0.20424886 0.75291896
-0.15849921 0.18847293 0.75365055
-0.20110781 0.12643278 0.73641413
-0.20213558 0.16407783 0.7577042
-0.16913129 0.20031282 0.72698963
-0.21593338 0.16573174 0.74313813
-0.14762919 0.17858514 0.73238045
-0.16840455 0.20045574 0.72934228
-0.14739017 0.19518656 0.75265032
-0.14235145 0.19975927 0.75229353
-0.21758661 0.16593777 0.7342782
-0.16145229 0.1791081 0.71808028
-0.22102238 0.16066375 0.75353342
-0.17516573 0.18278179 0.75542837
-0.18436301 0.11062297 0.75204128
-0.21370168 0.14280717 0.72281832
-0.19799714 0.1222802 0.7388711
-0.18523671 0.10300973 0.7303409
-0.20326419 0.17214768 0.75822228
-0.15204334 0.15677135 0.72866058
-0.15743634 0.12473754 0.74948025
-0.20527409 0.13063866 0.72183442
-0.17898093 0.12732753 0.75240803
-0.19008315 0.18590371 0.7271384
-0.19004442 0.1649517 0.75620842
-0.16178976 0.092263058 0.74135292
-0.15942211 0.12100582 0.72154707
-0.16149485 0.14704329 0.71605635
-0.17523986 0.088449553 0.7281273
-0.18124768 0.09652967 0.72387916
-0.21887879 0.15326533 0.74825317
-0.14352812 0.1927408 0.74365443
-0.16417451 0.079020277 0.74120802
-0.16680378 0.12483508 0.71533185
-0.15567885 0.14053057 0.75025451
-0.16038744 0.18949072 0.75395727
-0.15490827 0.14548597 0.72257078
-0.17981666 0.097574115 0.74960631
-0.16395062 0.077243902 0.74508429
-0.20251714 0.15406597 0.75711936
-0.18328679 0.18974112 0.73261744
-0.17228033 0.16307385 0.71845442
-0.15500534 0.14478163 0.72277659
-0.19161232 0.18243289 0.74313056
-0.21674924 0.16135111 0.75940627
-0.16504897 0.18140799 0.7540437
-0.15992337 0.12204098 0.71663171
-0.14919537 0.16668396 0.73638356
-0.16535713 0.17376833 0.71824336
-0.16945562 0.16008945 0.71790314
-0.17352007 0.084704801 0.71742499
-0.15800665 0.18094353 0.71775448
-0.1578403 0.13390535 0.71637923
-0.1787446 0.16757835 0.71956879
-0.18096617 0.096025355 0.723032
-0.17987515 0.10593989 0.71581274
-0.1610081 0.098292619 0.73923975
-0.16688117 0.076952778 0.73191458
-0.16390929 0.092973672 0.72525823
-0.17048687 0.12690137 0.75129145
-0.16608717 0.20118709 0.73502231
-0.20229694 0.14133801 0.72092932
-0.19605146 0.13488455 0.71971965
-0.15760934 0.13309027 0.71907574
-0.18422337 0.10214747 0.73522532
-0.21642274 0.16378419 0.75378394
-0.20124343 0.17060502 0.72264647
-0.18245073 0.1848217 0.75649202
-0.14214323 0.21924111 0.71967685
-0.18081614 0.12211823 0.75231361
-0.15619923 0.12773553 0.73602915
-0.20349416 0.12918779 0.73094308
-0.17177206 0.15070611 0.75296289
-0.17524587 0.14283471 0.7529102
-0.16505642 0.15660986 0.71711868
-0.18570571 0.10514806 0.71651047
