# .PCD v0.7 - Point Cloud Data file format
VERSION 0.7
FIELDS x y z
SIZE 4 4 4
TYPE F F F
COUNT 1 1 1
WIDTH 280
HEIGHT 1
VIEWPOINT 0 0 0 1 0 0 0
POINTS 280
DATA ascii
0.075697824 0.16753711 0.64100003
0.075817369 0.17005818 0.63966662
0.038090833 0.16663334 0.64700001
0.065731965 0.1679817 0.64700001
0.068913624 0.16705488 0.64618182
0.073832102 0.1669984 0.64537501
0.068997189 0.16884394 0.64600009
0.073313169 0.16957097 0.64450008
0.064640477 0.12531179 0.65300006
0.10671349 0.12440455 0.65300006
0.10981589 0.12301677 0.65285718
0.063904434 0.128943 0.65292853
0.066845559 0.12896593 0.65300006
0.077681974 0.12984796 0.65300006
0.094692618 0.12871392 0.65300006
0.10036284 0.13098201 0.65300006
0.10625987 0.12894073 0.653
0.10880516 0.12846191 0.65300006
0.035722367 0.13778627 0.65300006
0.036856409 0.13778627 0.65300006
0.051265433 0.13545147 0.653
0.064640477 0.13268307 0.65300006
0.066908561 0.1332501 0.65300006
0.079950057 0.13778627 0.65300006
0.08788836 0.13665223 0.65300006
0.093758687 0.13585173 0.653
0.10036284 0.1348094 0.653
0.10484707 0.13494161 0.65217865
0.10830114 0.13211605 0.65300006
0.035041939 0.1413018 0.653
0.03895821 0.14222585 0.65292853
0.044794716 0.14240967 0.653
0.051170569 0.14128846 0.65271431
0.057254478 0.141782 0.65283334
0.061786782 0.14295892 0.65280008
0.069601908 0.14246419 0.65300006
0.075201251 0.14218068 0.653
0.081084117 0.14118841 0.65299994
0.086707063 0.14109389 0.65299994
0.092849791 0.14156641 0.65299994
0.099552803 0.14175542 0.653
0.10444096 0.14051487 0.65249997
0.02849284 0.14728388 0.65300006
0.033737797 0.14731225 0.653
0.039176043 0.1469617 0.65299994
0.044769946 0.14677739 0.65263999
0.051010363 0.14679886 0.65273345
0.057180725 0.14663398 0.65200013
0.06285122 0.14665152 0.65208018
0.068668395 0.14678936 0.65230781
0.074881077 0.14665554 0.65244842
0.081020206 0.14691751 0.65214831
0.086761042 0.14734025 0.65222585
0.09294603 0.14714265 0.65211445
0.099031262 0.14712998 0.65170008
0.10456296 0.1473839 0.65232003
0.10886816 0.1462916 0.65300006
0.01528614 0.15569218 0.65200001
0.021546824 0.15593097 0.65300006
0.028192414 0.15322959 0.65290904
0.03302405 0.15307359 0.65290624
0.039192412 0.15316631 0.65278578
0.044764344 0.15299365 0.65256673
0.050980438 0.1529378 0.65233338
0.057190027 0.15288426 0.65210021
0.062794603 0.15274282 0.65150017
0.068956956 0.15286767 0.65168601
0.075199164 0.15279253 0.65209699
0.080799513 0.15283652 0.65103573
0.0869288 0.15322062 0.65079325
0.093091518 0.15302254 0.65065372
0.098665282 0.15323302 0.65011102
0.10465344 0.15288843 0.65119231
0.10824586 0.15245038 0.65266675
0.011446544 0.160596 0.65260005
0.015380031 0.15917252 0.65195841
0.020965805 0.15922494 0.65256006
0.026630221 0.15921526 0.65252006
0.032905657 0.1590955 0.65158081
0.039002281 0.159198 0.65096432
0.04468954 0.15896219 0.65148008
0.050886706 0.158877 0.65113348
0.057135466 0.15896168 0.65148008
0.06271138 0.15875733 0.65064001
0.068982974 0.15888546 0.6511668
0.075141363 0.15920687 0.65100002
0.080719635 0.15918158 0.65006649
0.086920172 0.1591655 0.6499998
0.093080766 0.15908256 0.64966649
0.09884572 0.15897156 0.65016657
0.10352911 0.15861413 0.65062499
0.011907456 0.16330224 0.65300006
0.015560534 0.16325131 0.65166664
0.021202922 0.16426472 0.65157157
0.026797807 0.16488019 0.65216005
0.032883562 0.16502841 0.65156269
0.039030492 0.16472745 0.64978254
0.044578727 0.16491686 0.6516667
0.051029477 0.16481133 0.65180659
0.057093848 0.165061 0.65100008
0.062872551 0.16497956 0.65012503
0.069009736 0.16415393 0.65028572
0.075364284 0.16488661 0.65012491
0.080841444 0.16507652 0.65105003
0.087081574 0.16507734 0.64981472
0.092933916 0.16502766 0.64863992
0.098935686 0.16504626 0.65055168
0.10396376 0.16473965 0.64999992
0.028918106 0.16840544 0.65300006
0.032854956 0.16881078 0.65020001
0.0365742 0.16824132 0.648
0.04699073 0.16814755 0.65200001
0.05060184 0.16842252 0.65233332
0.054832645 0.16902022 0.65100002
0.062207401 0.16858749 0.64933336
0.08117862 0.17057902 0.65299994
0.086627431 0.16959932 0.65206665
0.09346927 0.16882372 0.64900005
0.099635787 0.16961651 0.65142858
0.10253569 0.16913687 0.65000004
0.10798767 0.08399041 0.65800005
0.11135198 0.08270856 0.65688896
0.095417678 0.089704044 0.65800005
0.096560404 0.089704044 0.65800005
0.10735282 0.087291628 0.65800005
0.11048234 0.087572843 0.65764701
0.089132681 0.093132228 0.65800005
0.094274953 0.091989502 0.65800005
0.096560396 0.092751317 0.65800005
0.10798767 0.091989502 0.65800005
0.11043552 0.092822962 0.6578334
0.094782822 0.099480711 0.65800005
0.098788708 0.099360071 0.65800005
0.10464112 0.099988587 0.65800005
0.10936349 0.099217311 0.65711117
0.070849054 0.10798767 0.65800005
0.075471908 0.10705271 0.65800005
0.08075887 0.10703781 0.6579091
0.088094287 0.10599287 0.65783334
0.093248852 0.10529789 0.65733337
0.099132478 0.10514116 0.65723544
0.10526656 0.10476638 0.65662515
0.11036004 0.10529099 0.65579998
0.064807288 0.11241242 0.65788889
0.069261402 0.11157725 0.65778255
0.074793719 0.11133457 0.65751994
0.081054382 0.11130827 0.65736663
0.087183453 0.11111589 0.65623999
0.092860669 0.11108977 0.65608001
0.099139921 0.11110514 0.65616673
0.1053678 0.11106393 0.65592003
0.10930592 0.11030232 0.65562505
0.058549691 0.1181476 0.65783334
0.063394688 0.11708008 0.65772003
0.069100991 0.11707254 0.65767998
0.074730434 0.11694299 0.65695989
0.080992527 0.11692754 0.65686649
0.087131217 0.11674635 0.65583992
0.092900932 0.11683817 0.65635991
0.099144727 0.11680915 0.65620005
0.10538086 0.11677317 0.65600008
0.10938474 0.11678989 0.65610009
0.051750641 0.12462118 0.65733337
0.057095665 0.12274811 0.65690315
0.063165151 0.12294834 0.65660709
0.068927869 0.1230444 0.65603334
0.074705213 0.1230153 0.6557743
0.081018835 0.123097 0.65639991
0.087165713 0.12305735 0.65610009
0.092787758 0.12295684 0.65556681
0.099026732 0.12292898 0.65541679
0.10486907 0.12247971 0.65507996
0.10891722 0.12086116 0.65500003
0.041519359 0.13138318 0.65500003
0.045317393 0.13011885 0.65543753
0.050712112 0.12877217 0.65620005
0.05696243 0.12892875 0.65657133
0.061908457 0.12883376 0.65518188
0.069815099 0.12896596 0.65500003
0.074981853 0.12907563 0.65503454
0.081347696 0.12913148 0.65511996
0.087051496 0.12915497 0.65523994
0.092612825 0.12910818 0.65499991
0.098905109 0.12902972 0.65500003
0.10432088 0.12896973 0.65506667
0.039727636 0.1355802 0.65523535
0.044945702 0.13483672 0.65519994
0.0505247 0.13413216 0.65500009
0.057154201 0.13484992 0.65585721
0.062865511 0.13524853 0.65561908
0.06935858 0.13515492 0.65499997
0.075076103 0.1347957 0.65500003
0.081332438 0.13479571 0.65499991
0.086989589 0.13472651 0.65512496
0.091914825 0.13409373 0.6551429
0.09786436 0.13494739 0.65500003
0.10408278 0.13308945 0.65500003
0.028627506 0.14351669 0.65500003
0.032315817 0.14265494 0.65500009
0.039551895 0.13973904 0.65506673
0.044939976 0.13970518 0.65511763
0.049671564 0.13858745 0.65500003
0.057459068 0.13928618 0.6551668
0.063378677 0.14061667 0.65519994
0.068467222 0.14039934 0.65509087
0.074791722 0.13980083 0.65499997
0.083038718 0.13820828 0.65500003
0.087209612 0.13915621 0.65500003
0.092518032 0.13953538 0.65500003
0.098546863 0.14040749 0.65500003
0.10557031 0.14214586 0.65500009
0.10920161 0.1433271 0.65500003
0.02293992 0.14920427 0.65500003
0.026081633 0.14747092 0.65500009
0.03128171 0.1463984 0.65500009
0.038902782 0.14669885 0.65566665
0.10664219 0.14588651 0.65500003
0.10988268 0.145181 0.65566665
0.017347129 0.1544179 0.65500003
0.021193827 0.15320386 0.65504342
0.02580741 0.15292493 0.65500003
0.031850468 0.15356475 0.65500003
0.03810681 0.15185848 0.65500003
0.01706275 0.15640855 0.65500003
0.018769026 0.15640855 0.65500003
0.0259733 0.15640855 0.65500003
0.084744997 0.17233378 0.65500003
0.10738013 0.071266718 0.66366673
0.11040966 0.071306668 0.6622501
0.10590684 0.07522624 0.6631819
0.110875 0.075257413 0.66160005
0.1142197 0.077485725 0.66100001
0.099984914 0.081601173 0.66152936
0.10511171 0.080986567 0.66147995
0.11070855 0.080644034 0.66030425
0.1140469 0.078514703 0.66000003
0.089976706 0.089976706 0.66000003
0.093930833 0.087210029 0.66095239
0.09923064 0.087016799 0.66003436
0.10457477 0.087072089 0.66003841
0.082969904 0.095027149 0.66125
0.087195799 0.093271881 0.66135478
0.093064941 0.093264282 0.66034782
0.099458888 0.093467385 0.65999991
0.10487732 0.09341529 0.65999991
0.10974865 0.09355858 0.66000003
0.077103078 0.10120975 0.66100001
0.081078723 0.099420398 0.66009086
0.087132819 0.099170871 0.66016656
0.092484005 0.098788112 0.65999997
0.099375546 0.097083144 0.66000003
0.10477311 0.097687505 0.65999997
0.1083159 0.099146307 0.66000003
0.071637504 0.1071697 0.66000003
0.075032905 0.10462983 0.66024995
0.080921717 0.10436153 0.65999997
0.08603663 0.10430422 0.65999997
0.091504969 0.10296697 0.66000003
0.083099499 0.1083159 0.66000003
0.069026709 -0.24987161 0.88000005
0.074120939 -0.24987161 0.88000005
0.059105717 -0.24947217 0.88400006
0.064369723 -0.24871829 0.88460004
0.068801612 -0.24835348 0.88366669
0.074445315 -0.2483338 0.88385719
0.034815826 -0.24990027 0.89100003
0.038684249 -0.24990027 0.89100003
0.042552676 -0.24990027 0.89100003
0.058026373 -0.24990027 0.89100003
0.062622756 -0.24971329 0.89033335
0.071019247 -0.24779542 0.88900006
0.073335096 -0.24779542 0.88900006
-0.024172664 -0.24874452 0.89800006
-0.022613138 -0.24874452 0.89800006
0.03271272 -0.24924554 0.89700007
0.039664023 -0.24887562 0.89566666
0.044372272 -0.24910703 0.89649999
0.059908055 -0.24974656 0.89600003
0.063066475 -0.24915262 0.89666677
0.068651482 -0.24861252 0.89640009
