# .PCD v0.7 - Point Cloud Data file format
VERSION 0.7
FIELDS x y z
SIZE 4 4 4
TYPE F F F
COUNT 1 1 1
WIDTH 193
HEIGHT 1
VIEWPOINT 0 0 0 1 0 0 0
POINTS 193
DATA ascii
-0.17104319 0.16581932 0.50109529
-0.1680225 0.16715418 0.5
-0.18065889 0.17316777 0.50168747
-0.17305747 0.1717369 0.50151622
-0.17899476 0.17987004 0.50400001
-0.17242724 0.18305564 0.50369239
-0.18263873 0.17737663 0.505
-0.17628036 0.17759588 0.505
-0.18126406 0.18213451 0.50774431
-0.17395541 0.18262836 0.50648969
-0.16806419 0.1852676 0.50800002
-0.071598299 0.17794979 0.54400009
-0.08277072 0.18437292 0.54240382
-0.073650695 0.18226387 0.54175717
-0.0678569 0.18378879 0.54344004
-0.071066141 0.18872531 0.54200006
-0.06507384 0.16749232 0.55374998
-0.080542952 0.17695956 0.55079997
-0.073473491 0.17418753 0.54897946
-0.064680219 0.1733831 0.55063432
-0.059169967 0.17654781 0.55400002
-0.09238749 0.18622765 0.54965633
-0.085051998 0.18173191 0.54817545
-0.077196047 0.17854305 0.54540002
-0.063323997 0.18253157 0.5490573
-0.058335751 0.18388544 0.55347621
-0.092277266 0.18996482 0.54894114
-0.088902138 0.18921462 0.54750001
-0.061832283 0.18837276 0.55200005
-0.060238022 0.15818602 0.56400001
-0.055615943 0.15777999 0.56294441
-0.071173765 0.16707031 0.56078953
-0.063421771 0.163885 0.55821836
-0.055204898 0.16367941 0.55989885
-0.089874677 0.17694397 0.56175005
-0.083619386 0.17604029 0.56172556
-0.075537138 0.17100233 0.5592702
-0.060481589 0.16987857 0.55500001
-0.05478039 0.17319255 0.55859292
-0.048872102 0.17461026 0.56382364
-0.092366084 0.18245648 0.55928016
-0.086719513 0.17977054 0.5579167
-0.053604685 0.18256336 0.55753762
-0.046958655 0.18343966 0.56296772
-0.052505139 0.19350216 0.55771434
-0.047235448 0.19202918 0.56171805
-0.034771539 0.19246782 0.56400001
-0.05369743 0.198847 0.55717647
-0.048453003 0.1986573 0.55800003
-0.050795332 0.14790279 0.57350004
-0.04498893 0.14730811 0.57355559
-0.061636686 0.15674289 0.57012498
-0.053719811 0.15374546 0.56826079
-0.045130674 0.15324266 0.57051468
-0.039375443 0.1580002 0.574
-0.079581596 0.16763639 0.574
-0.073274031 0.16469984 0.56938303
-0.065983288 0.16093026 0.56848717
-0.050381705 0.16239133 0.56499982
-0.044461414 0.1633316 0.56878084
-0.038776077 0.16371623 0.57325
-0.09174376 0.17809083 0.565
-0.083592869 0.17210373 0.56855941
-0.077717669 0.16965029 0.56962502
-0.049551442 0.16925988 0.565
-0.044007245 0.17316818 0.56797934
-0.03746945 0.17410852 0.57239133
-0.042001083 0.18252414 0.56675446
-0.03647913 0.18303579 0.57098532
-0.041746531 0.19056317 0.5656153
-0.034885246 0.19110112 0.57000011
-0.029406978 0.19288982 0.574
-0.040787354 0.13806805 0.58350003
-0.035812214 0.13720791 0.58282351
-0.051524419 0.14679135 0.5803811
-0.044040751 0.1432818 0.57867873
-0.034971986 0.14380787 0.58043933
-0.028905081 0.14655383 0.58400005
-0.070806943 0.1564544 0.5836429
-0.064079665 0.1546637 0.57943749
-0.056534342 0.15003936 0.57753336
-0.04056745 0.15315773 0.57500005
-0.034569282 0.15349734 0.57898223
-0.028396195 0.15327203 0.58347619
-0.080908552 0.16731091 0.5751667
-0.072721876 0.16058177 0.58155882
-0.068074517 0.15958816 0.57750005
-0.033791214 0.16331677 0.57836974
-0.027775036 0.16448407 0.58310711
-0.032871149 0.17253451 0.57736355
-0.026665423 0.17343417 0.58080608
-0.031783707 0.18309253 0.57580012
-0.02610643 0.18386817 0.58057326
-0.031593438 0.18893914 0.57525003
-0.024678212 0.19179979 0.57963651
-0.018638087 0.19284587 0.58178943
0.0032116759 0.19388378 0.58400005
-0.031126713 0.12784994 0.59250003
-0.027357059 0.12735318 0.59258336
-0.042926468 0.13616526 0.58888239
-0.034182116 0.13334273 0.58834833
-0.025849182 0.13422611 0.59153306
-0.060658295 0.14804649 0.59200001
-0.05406012 0.14480396 0.58846003
-0.047002364 0.1402328 0.58770001
-0.030637948 0.13996893 0.58562499
-0.025044648 0.14366527 0.58991194
-0.071827665 0.1561515 0.58500004
-0.063373357 0.15087168 0.58800006
-0.05795908 0.14896388 0.5855
-0.023520697 0.15337598 0.58954316
-0.018355062 0.15538362 0.59266669
-0.023195572 0.16310365 0.58802605
-0.01769813 0.16389078 0.59177774
-0.02158376 0.17305116 0.58699995
-0.016132228 0.17356166 0.59050006
-0.021319509 0.18180884 0.58546877
-0.01518805 0.1832526 0.58891672
-0.009783512 0.18331212 0.59300005
-0.019811025 0.18845873 0.58500004
-0.014455755 0.19199166 0.58829695
-0.0096036224 0.19430421 0.59250003
0.0026195757 0.1922812 0.58692849
-0.021671129 0.11735838 0.60192311
-0.017504195 0.11660551 0.60219049
-0.033299677 0.12593205 0.59870011
-0.024518054 0.12336453 0.59806538
-0.016435528 0.12414091 0.60101587
-0.05147567 0.13744083 0.6018334
-0.044509444 0.13428548 0.59821051
-0.037773773 0.12982753 0.5971539
-0.021589998 0.13191505 0.5954482
-0.015365772 0.13383162 0.59995139
-0.061200134 0.14547926 0.59704769
-0.054955404 0.14183758 0.59693033
-0.049165033 0.13869542 0.59600008
-0.020373704 0.14132646 0.59400004
-0.0145681 0.14342168 0.59818828
-0.0086589707 0.14430691 0.60238892
-0.064101525 0.14870788 0.5953334
-0.014312316 0.15307869 0.59685546
-0.0063497177 0.15493186 0.60136676
-0.01313444 0.16329607 0.59667861
-0.0055493354 0.16339126 0.60083336
0.0012570986 0.16014473 0.59685713
-0.011834861 0.17244981 0.59468007
-0.0054208636 0.17317352 0.59832662
0.00052331557 0.17426234 0.60266674
-0.010952483 0.18217391 0.59433335
-0.005332856 0.18317243 0.59574234
0.00051579002 0.18516861 0.59400004
-0.010831591 0.19032651 0.59400004
-0.0048475345 0.19270603 0.59550017
0.00051723723 0.19414054 0.59566671
-0.0045739855 0.19907008 0.59772736
0.0010402633 0.19921044 0.59900004
-0.010911912 0.10778838 0.61300004
-0.0071694716 0.10604026 0.61294121
-0.030340435 0.1187003 0.61300004
-0.02491972 0.11667592 0.6075927
-0.013643758 0.11339892 0.60769618
-0.0061342926 0.11394244 0.61110431
-0.042728607 0.12735415 0.61083341
-0.034764457 0.1237525 0.60789192
-0.028118154 0.11956408 0.60525006
-0.01147785 0.12320839 0.60482866
-0.005806033 0.12394004 0.6081062
-0.051824946 0.13491455 0.606381
-0.045568388 0.13130857 0.60722929
-0.010319042 0.13274918 0.60426676
-0.005440393 0.13382795 0.60609192
0.00052707834 0.13704038 0.60700005
-0.0040384899 0.14341517 0.60565656
0.00052838086 0.14320076 0.6085
-0.0042032916 0.15119742 0.60535711
-0.00052490749 0.17636937 0.60450006
0.00087730616 0.17688559 0.6056667
-0.020819377 0.10842118 0.62275004
-0.014198483 0.10606591 0.61699998
-0.0062201614 0.10481859 0.61400002
-0.032833841 0.11593459 0.61757147
-0.024905179 0.11308499 0.61798465
-0.017713066 0.11041901 0.61523074
-0.04238943 0.12455156 0.61667997
-0.036297653 0.12153608 0.61597139
-0.0026679542 0.12059197 0.61450005
-0.043256026 0.12870003 0.61500001
-0.029944476 0.10780011 0.62700003
-0.024190204 0.1067097 0.62837148
-0.017819213 0.10437975 0.62500006
-0.030586464 0.1108743 0.62900001
-0.027044512 0.11012692 0.62761539
-0.025010085 0.10521664 0.63440001
