# .PCD v0.7 - Point Cloud Data file format
VERSION 0.7
FIELDS x y z
SIZE 4 4 4
TYPE F F F
COUNT 1 1 1
WIDTH 101
HEIGHT 1
VIEWPOINT 0 0 0 1 0 0 0
POINTS 101
DATA ascii
-0.023072196 0.13495058 0.75200003
-0.016138101 0.13740706 0.75199997
0.0097948005 0.13125032 0.75200003
0.011100774 0.13418876 0.75200003
0.027425442 0.13516824 0.75200003
-0.051324755 0.14770558 0.75200003
-0.043432504 0.14621167 0.75104004
-0.035150785 0.14533027 0.75137514
-0.023289857 0.1448542 0.75200003
-0.015289171 0.14391388 0.75141191
-0.006093096 0.14711776 0.75188881
0.0006529867 0.14822797 0.75200003
-0.054697149 0.15383109 0.75031739
-0.04433164 0.15368059 0.75028574
-0.035214651 0.15410826 0.75170028
-0.025190566 0.1535871 0.75155032
-0.014925164 0.1538156 0.75076365
-0.0053781783 0.15337949 0.75096422
0.0039889785 0.1543272 0.75150025
-0.055212356 0.1631428 0.75020009
-0.044216428 0.16351649 0.74974579
-0.034787141 0.16348125 0.74979997
-0.024735231 0.16287257 0.74961305
-0.014982967 0.16354276 0.7503674
-0.0052246423 0.1640614 0.75046128
0.0051936386 0.16364948 0.75018567
0.011474853 0.16493818 0.75080001
0.023209313 0.16163184 0.75142854
-0.057385549 0.16889864 0.75100005
-0.045634627 0.16944049 0.74972731
-0.032932121 0.16978161 0.7486667
-0.025445815 0.17009833 0.75139993
-0.014224263 0.16993918 0.74984217
-0.0053863968 0.17129101 0.74842846
0.0040096063 0.17052542 0.74770594
0.015235111 0.17208098 0.75023085
-0.00066080171 0.098459452 0.76100004
0.0066910861 0.094980627 0.75788897
0.015319292 0.094818197 0.76007676
0.024606304 0.094071634 0.76029414
-0.011932058 0.10711703 0.75888896
-0.0045628836 0.10504395 0.75911987
0.0052597658 0.10390332 0.75731242
0.015162279 0.10414957 0.75914252
0.024921767 0.10454571 0.75967789
0.030764792 0.1031178 0.76030004
-0.021788742 0.11668768 0.75580007
-0.01479326 0.11406049 0.75612801
-0.0053099496 0.11369216 0.75622827
0.0052945963 0.1140291 0.75732207
0.015128176 0.1137922 0.75751013
0.024840541 0.11373948 0.75796282
0.030935245 0.10991885 0.75800002
-0.031837154 0.12640175 0.75511116
-0.024652077 0.12371328 0.75534487
-0.015087531 0.12348975 0.75542611
-0.0051923706 0.12333225 0.75506353
0.0052133729 0.12350287 0.75516403
0.01510027 0.12342136 0.75605381
0.02463568 0.12389273 0.75708479
0.031416301 0.12632166 0.75600004
-0.042033758 0.13598664 0.75400013
-0.034482058 0.13392423 0.75419211
-0.025059506 0.13337462 0.75396532
-0.014898736 0.13295639 0.75397968
-0.0052386005 0.13364057 0.75443745
0.0051632063 0.13360754 0.75407916
0.015376527 0.13361403 0.75471139
0.024290146 0.13340098 0.75532728
0.030935245 0.12966475 0.75800002
-0.052448411 0.14510775 0.75335306
-0.04508074 0.14218311 0.75351286
-0.033895176 0.14146602 0.75308347
-0.025771137 0.14317532 0.75325024
-0.012161704 0.14005575 0.75300002
-0.0048928298 0.14257289 0.75347817
0.0052410634 0.14393854 0.75425822
0.015076835 0.14355986 0.75491822
0.024588853 0.14380962 0.75501913
0.031326428 0.14739916 0.75950003
-0.056885388 0.1497328 0.75300002
-0.032514427 0.15199159 0.75300008
-0.023978641 0.15375182 0.75311124
-0.018961795 0.15627135 0.75300002
-0.0026154201 0.15496364 0.75300002
0.0073195752 0.15217978 0.75363654
0.015090282 0.15349913 0.75544673
0.024069564 0.15321922 0.75619245
-0.052028175 0.1674803 0.75299996
-0.0043154433 0.1596714 0.75300002
0.0098078251 0.15888678 0.75300002
0.015688026 0.16330884 0.75413018
0.02240802 0.16407666 0.75413066
-0.052717771 0.17007998 0.75366676
-0.023406951 0.17351039 0.75454545
0.017659947 0.16989464 0.75325012
0.021585248 0.17022157 0.75325
0.0086129988 0.088117599 0.76300001
0.014405147 0.091420107 0.76321071
0.021863766 0.098055676 0.76300001
0.022526305 0.10004329 0.76300001
